0.490516650676589, 0.00603567572731924, 0.151273048618796, -0.0106494018622111, -0.998544231026997, 0.0528773006372378
0.499017550945144, 0.803125036381673, 0.109063667753699, 0.0106494018622111, 0.998544231026997, -0.0528773006372378
-1.01335807800293, 0.120459499359131, -0.272812576293945, -0.86784821186046, -0.00659188756618404, -0.496785696441551
0.746688461303711, 0.133828229904175, 0.734697647094727, 0.86784821186046, 0.00659188756618404, 0.496785696441551
-0.893308258056641, 0, -0.17335205078125, 0.054248022455287, -0.998416642159058, 0.0148781961111833
-0.936503829956055, 0.795, -0.185198974609375, -0.054248022455287, 0.998416642159058, -0.0148781961111833
0.525184508403737, -2.2127868037618, -0.363594857638067, 0.89100209908444, 0.0196509258824259, -0.453573699126267
-0.596563309589427, -2.23752679399618, 0.207442301327998, -0.89100209908444, -0.0196509258824259, 0.453573699126267
0.562240556770723, -0.893301886133251, -0.296721127342357, 0.944484019452724, 0.00479562852721621, -0.328522356842658
-0.62426094622, -0.899326361230908, 0.115982806373464, -0.944484019452724, -0.00479562852721621, 0.328522356842658
0.632197460517693, 0.758221859480701, -0.943278441137111, 0.753049085020863, -0.0120658878631932, -0.657853699464641
-0.918566966667365, 0.783069309737048, 0.411448808008397, -0.753049085020863, 0.0120658878631932, 0.657853699464641
-0.450730180817015, -1.95719556498421, -0.464361596657892, -0.860294860559401, 0.0375286941295574, -0.508413561986707
0.631193189544313, -2.00439237284554, 0.17502908174787, 0.860294860559401, -0.0375286941295574, 0.508413561986707
-0.591914057354057, -2.59736653997672, -0.20909593449711, -0.972808624380599, -0.0274551024835249, -0.229977385145467
0.631562161823189, -2.56283696844351, 0.0801406682860931, 0.972808624380599, 0.0274551024835249, 0.229977385145467
0.50307282389733, 0.581219280616615, -1.05013426149376, 0.0266215016558692, 0.195216387454588, -0.980398825845261
0.448030022994009, 0.177588528053138, 0.976945129985734, -0.0266215016558692, -0.195216387454588, 0.980398825845261
0.327384300231934, -1.63886672973633, -0.536494026184082, 0.563207558253999, -0.0236822022695985, -0.82597602847857
-0.380375175476074, -1.60910629272461, 0.501475639343262, -0.563207558253999, 0.0236822022695985, 0.82597602847857
-0.298265898068455, -2.17091131441095, -0.571071744865068, -0.664860767352515, 0.0258467375739153, -0.74651999718173
0.538001039187405, -2.20342153779963, 0.367906793648115, 0.664860767352515, -0.0258467375739153, 0.74651999718173
0.638775019075509, 0.668181248425475, -0.947949297412946, 0.828583121559475, 0.253325274959185, -0.499275791255303
-1.09326378402508, 0.138639679669372, 0.0957179236563898, -0.828583121559475, -0.253325274959185, 0.499275791255303
0.48962945782323, -0.608528149308368, -0.41291302596905, 0.866043382638059, -0.00772364125436157, -0.499909196509329
-0.60000692523341, -0.598810436906024, 0.216061526185491, -0.866043382638059, 0.00772364125436157, 0.499909196509329
0.594717292785645, -0.720817108154297, -0.200834407806396, 0.944484019452724, 0.00479562852721621, -0.328522356842658
-0.591784210205078, -0.726841583251953, 0.211869525909424, -0.944484019452724, -0.00479562852721621, 0.328522356842658
0.417151870727539, -0.652485504150391, -0.471485176086426, 0.650054791381023, -0.000613960541879839, -0.759887091122772
-0.40041446685791, -0.651713333129883, 0.484215965270996, -0.650054791381023, 0.000613960541879839, 0.759887091122772
0.625370483398437, 0, -0.369589729309082, 0.0172031788418516, -0.997462549698438, 0.0690833741708325
0.611659164428711, 0.795, -0.424650726318359, -0.0172031788418516, 0.997462549698438, -0.0690833741708325
0.356300684292128, -0.0287651318564257, -1.05709993382297, 0.0612720761259323, -0.988495018745652, 0.138287131007378
0.307048174221327, 0.765819676493184, -1.16825967808567, -0.0612720761259323, 0.988495018745652, -0.138287131007378
0.106354627609253, -1.16567085266113, -0.619188385009766, 0.151410640926151, 0.0346904790674464, -0.987862029069041
-0.0841241645812988, -1.20931243896484, 0.623569488525391, -0.151410640926151, -0.0346904790674464, 0.987862029069041
0.583490461295603, -1.35223393657961, -0.294502227554882, 0.740957240794169, -0.00233745863408351, -0.671548139452285
-0.349552217537405, -1.34929051616945, 0.551137764205372, -0.740957240794169, 0.00233745863408351, 0.671548139452285
-0.202491607821434, -0.00161850267554302, 1.12186244941749, -0.0115094970110216, -0.999928862116192, -0.00313084422664158
-0.193341865694969, 0.793298184336176, 1.12435138679542, 0.0115094970110216, 0.999928862116192, 0.00313084422664158
0.11011596924384, -1.62185314168053, -0.616159299464109, 0.293621698989596, 0.0450918709398853, -0.954857592030144
-0.259653870996639, -1.6786391829403, 0.586332003026126, -0.293621698989596, -0.0450918709398853, 0.954857592030144
-0.218721008300781, -2.5375, 0.387249946594238, -0.00478142660000948, -0.999942497579541, -0.0095989319228289
-0.202785987854004, 0.795, 0.419240226745605, 0.00478142660000948, 0.999942497579541, 0.0095989319228289
-1.21925306550139, 0.204299655381791, 0.0743161946789466, -0.856590737256758, -0.0181080966976446, -0.51567858757167
0.516621491993723, 0.240995574418657, 1.11933489623229, 0.856590737256758, 0.0181080966976446, 0.51567858757167
0.0278932663673557, -0.414539542110568, -0.667153059156762, 0.38136013581352, -0.00197357055287631, -0.924424443549372
-0.451136522603592, -0.412060522945529, 0.494024537889137, -0.38136013581352, 0.00197357055287631, 0.924424443549372
-0.160927981839228, -0.681432487952155, -0.617950411373603, -0.0625243746031045, -0.0120364078282035, -0.997970855018865
-0.0823163552141673, -0.666299164282721, 0.636794042056573, 0.0625243746031045, 0.0120364078282035, 0.997970855018865
-0.487225341796875, -0.00131784856319428, -0.468545570373535, -0.0536654188390618, -0.9982777807261, -0.0236958926694303
-0.444416885375977, 0.795, -0.4496435546875, 0.0536654188390618, 0.9982777807261, 0.0236958926694303
-0.384007168017193, 0.00141393566327562, -0.52302430439903, -0.036654917148459, -0.99882831583218, 0.031597666696919
-0.354832325182721, 0.796413935663276, -0.548173916825788, 0.036654917148459, 0.99882831583218, -0.031597666696919
-0.680707248676683, 0.516311727946708, -0.959021830668563, -0.405298906678262, 0.00762377256180179, -0.914152434956737
0.211924243938063, 0.499521109050224, 1.05431015480507, 0.405298906678262, -0.00762377256180179, 0.914152434956737
-0.938484649658203, 0.451688385009766, -0.402496910095215, -0.86949390806981, -0.0110066776927219, -0.493821017045303
0.825000152587891, 0.474011840820313, 0.599057960510254, 0.86949390806981, 0.0110066776927219, 0.493821017045303
0.119342575073242, -1.26467758178711, -0.617683525085449, 0.231105341256081, 0.00877355468651055, -0.972889174562587
-0.17123140335083, -1.27570877075195, 0.605552062988281, -0.231105341256081, -0.00877355468651055, 0.972889174562587
0.198206844329834, -1.96360046386719, -0.597509078979492, 0.291458428752168, -0.00808992579901437, -0.956549286450982
-0.168630275726318, -1.95341827392578, 0.606428604125977, -0.291458428752168, 0.00808992579901437, 0.956549286450982
-0.437823361993767, -1.47982953480401, -0.458504791141895, -0.728652060215844, -0.0257918452087029, -0.684398243615467
0.47833367383387, -1.44740064076104, 0.402010536311719, 0.728652060215844, 0.0257918452087029, 0.684398243615467
-0.131447559782319, -2.5303070317422, -0.641214000693635, 0.00366337792525483, -0.986364447789546, -0.164534968316771
-0.143821588941864, 0.801400121578113, -0.0854535694039621, -0.00366337792525483, 0.986364447789546, 0.164534968316771
-0.762950592041016, 0, -0.220225620269775, -0.0617704104218618, -0.997797974781088, 0.0241581853431404
-0.713734741210937, 0.795, -0.239473762512207, 0.0617704104218618, 0.997797974781088, -0.0241581853431404
-0.780569579209616, -0.000831398569980181, -0.854591118018761, -0.00124267964424234, -0.999768395093072, -0.0214851558133474
-0.779581420029928, 0.79416860143002, -0.837506462257042, 0.00124267964424234, 0.999768395093072, 0.0214851558133474
-0.115308429178975, -0.473196074318917, -0.618388814715994, -0.261000060077319, 0.011095527764934, -0.965275016719719
0.213068092885234, -0.487155882668527, 0.596069345684397, 0.261000060077319, -0.011095527764934, 0.965275016719719
-0.801819686889648, 0, -0.500227165222168, -0.030520330583657, -0.999480446632422, -0.0103608021175304
-0.777543411254883, 0.795, -0.491986045837402, 0.030520330583657, 0.999480446632422, 0.0103608021175304
-0.0399340798906955, -1.10782343426119, -0.635294642838487, -0.133982186514171, -0.0329282431665392, -0.990436522195566
0.128558666462454, -1.06641367473971, 0.610254292098037, 0.133982186514171, 0.0329282431665392, 0.990436522195566
0.895547970704503, 0.165679382012008, -0.481598033283723, 0.867650287004982, 0.0121162157678091, -0.497027340068572
-0.864186144896083, 0.141105750725387, 0.526453228618132, -0.867650287004982, -0.0121162157678091, 0.497027340068572
-0.550231246948242, -1.76879425048828, -0.30434103012085, -0.858743802711128, -0.00417907100898376, -0.51238815040039
0.529282913208008, -1.76354080200195, 0.339774551391602, 0.858743802711128, 0.00417907100898376, 0.51238815040039
-0.160358930501476, -2.517418861862, -0.642788487401545, 0.0773538775027324, -0.018530453002168, -0.996831480214598
-0.25769686070396, -2.49410114335614, 0.611570261988103, -0.0773538775027324, 0.018530453002168, 0.996831480214598
0.477138043449699, -1.72049640131567, -0.432041103246918, 0.563207558253999, -0.0236822022695985, -0.82597602847857
-0.230621432258309, -1.69073596430395, 0.605928562280426, -0.563207558253999, 0.0236822022695985, 0.82597602847857
-0.450626704424144, -0.113336198862025, -0.481587915354692, -0.861431237648758, 0.0414248469654359, -0.506181987882638
0.635366223127126, -0.165559857423732, 0.156547823018111, 0.861431237648758, -0.0414248469654359, 0.506181987882638
-0.573340972018529, -0.772249417554349, -0.281756066781289, -0.952737290738525, -0.0145082073380003, -0.3034487876991
0.625293900417995, -0.753996701489895, 0.100011606711143, 0.952737290738525, 0.0145082073380003, 0.3034487876991
-0.588698539733887, -1.65555221557617, -0.221279640197754, -0.952892074359485, 0.0140488177220689, -0.302984034799675
0.608730697631836, -1.6732063293457, 0.159458065032959, 0.952892074359485, -0.0140488177220689, 0.302984034799675
0.198469734191895, 0.000601384565234184, 0.979287490844727, 0.00749564801348933, -0.982248391400543, 0.187435089702818
0.19240758895874, 0.795, 0.827698364257813, -0.00749564801348933, 0.982248391400543, -0.187435089702818
-0.416626306074307, -1.42902000661356, -0.496690843323607, -0.415590659888144, 0.0244952585407829, -0.909221857261888
0.106219324571445, -1.45983696217996, 0.647181532164674, 0.415590659888144, -0.0244952585407829, 0.909221857261888
-0.272409801483154, 0, -0.892232284545898, -0.0126939611656944, -0.999451581974869, -0.0305842874341594
-0.262312564849854, 0.795, -0.867904434204102, 0.0126939611656944, 0.999451581974869, 0.0305842874341594
0.721174921141286, -2.53851215250808, -0.0974388684024357, -0.00577266559699636, -0.99986539698198, -0.0153578725731246
0.740414919005055, 0.793987847491924, -0.0462518681277775, 0.00577266559699636, 0.99986539698198, 0.0153578725731246
-0.191626890107613, -1.66165972347638, -0.628727815818687, -0.554896173980135, 0.020935547635847, -0.831656142253152
0.50642994125225, -1.68799654598614, 0.417491781044106, 0.554896173980135, -0.020935547635847, 0.831656142253152
1.23479336305412, 0.155542242376216, 0.116679795099131, 0.873620753441643, -0.00730885563728723, -0.486552525207021
-0.537168268720784, 0.170366766301997, 1.10355242045008, -0.873620753441643, 0.00730885563728723, 0.486552525207021
-0.51204258990877, -2.46458251463282, -0.415147300712685, -0.547856986872797, -0.0213325926662382, -0.836299971556137
0.177698201412031, -2.43772521482814, 0.637737335212608, 0.547856986872797, 0.0213325926662382, 0.836299971556137
-0.609046487016339, -0.00496756747061871, -0.304240674752475, -0.299988369045372, -0.952035817263538, -0.060289145663594
-0.357555398149152, 0.793158456835202, -0.253698105592014, 0.299988369045372, 0.952035817263538, 0.060289145663594
-0.0416766215326691, -1.15204332735277, -0.654917153063499, 0.231105341256081, 0.00877355468651055, -0.972889174562587
-0.332250599956741, -1.16307451631762, 0.568318435010232, -0.231105341256081, -0.00877355468651055, 0.972889174562587
0.449268774698216, 0.000312704864581739, 0.0348922070777907, -0.0106494018622111, -0.998544231026997, 0.0528773006372378
0.457769674966771, 0.797402065518936, -0.00731717378730631, 0.0106494018622111, 0.998544231026997, -0.0528773006372378
-0.498223724365234, 0, 0.811318283081055, -0.00424899595969115, -0.998928088691577, -0.0460935966955003
-0.494842147827148, 0.795, 0.848002014160156, 0.00424899595969115, 0.998928088691577, 0.0460935966955003
-0.378416873099283, 0.175083298571347, -1.04302006703768, -0.00228126541305269, -0.17474972258202, -0.984610242829934
-0.373721343161539, 0.534770755059956, 0.983603773294347, 0.00228126541305269, 0.17474972258202, 0.984610242829934
-0.131729340241753, 0.91513026745763, -1.01039923449755, -0.00465679185591874, 0.0174479637640021, -0.999836928128833
-0.122283825562798, 0.879740023927357, 1.01760087231398, 0.00465679185591874, -0.0174479637640021, 0.999836928128833
0.594712791442871, 0.565753135681152, -0.982657241821289, 0.753049085020863, -0.0120658878631932, -0.657853699464641
-0.956051635742188, 0.5906005859375, 0.372070007324219, -0.753049085020863, 0.0120658878631932, 0.657853699464641
0.453026457943177, -0.686914654476038, -0.455402576422529, 0.572111210029425, -0.0208900039949406, -0.819909977431522
-0.266772393070007, -0.660632000667444, 0.576163051629229, -0.572111210029425, 0.0208900039949406, 0.819909977431522
0.878671540781534, 0.195260413018568, -0.453644047424964, 0.788622309943951, -0.00550260533983618, -0.61485329436634
-0.73553648991915, 0.206523535577162, 0.804881247832604, -0.788622309943951, 0.00550260533983618, 0.61485329436634
-0.484956908323242, -2.51949294071574, -0.444162276085444, -0.907676724258376, -0.0123280402792601, -0.419488955352174
0.655522484682129, -2.50400298099895, 0.0829180118479061, 0.907676724258376, 0.0123280402792601, 0.419488955352174
-0.234158960753096, 0.125996010097303, -0.61173234280059, -0.466694682882661, -0.115306451156687, -0.876869713977341
0.602369035310137, 0.332677333148755, 0.960014864841012, 0.466694682882661, 0.115306451156687, 0.876869713977341
-0.708158023820174, -2.53318737328412, 0.207153687828581, -0.00817194718154426, -0.999923621723075, 0.00927200083429762
-0.680938213334334, 0.797442509528378, 0.176269725912611, 0.00817194718154426, 0.999923621723075, -0.00927200083429762
0.594338035583496, -1.93546188354492, -0.204817047119141, 0.949324005338321, 0.00809341504584969, -0.314194890985362
-0.599936904907227, -1.94564361572266, 0.190448513031006, -0.949324005338321, -0.00809341504584969, 0.314194890985362
-0.599995994567871, -1.43310668945313, -0.189584884643555, -0.950531960780821, -0.00408212523497965, -0.310599948145092
0.596207008361816, -1.42796951293945, 0.201291599273682, 0.950531960780821, 0.00408212523497965, 0.310599948145092
-0.620722490237169, -1.07656082678555, -0.179460507914342, -0.868874282694255, -0.0118243229553934, -0.494891570204213
0.469643949582167, -1.06172226477383, 0.441588095143519, 0.868874282694255, 0.0118243229553934, 0.494891570204213
0.582619819641113, 0.000127684650942683, 0.892263031005859, 0.0501615304235632, -0.997412873064439, -0.0514915673766758
0.542644386291504, 0.795, 0.933298416137695, -0.0501615304235632, 0.997412873064439, 0.0514915673766758
-1.16366974902924, 0.895907879797798, -0.11638947017752, -0.953923386839995, 0.153199690250959, 0.257992300169449
0.854626836053766, 0.571770306555611, -0.662245652752746, 0.953923386839995, -0.153199690250959, -0.257992300169449
1.22753918642428, 0.718287019330356, 0.100037058910051, 0.869011577627198, -0.00372518058567036, -0.494777728863672
-0.534860410743691, 0.725841874677036, 1.10347141178481, -0.869011577627198, 0.00372518058567036, 0.494777728863672
1.21954092134675, 0.0355778613569297, 0.0910956153264944, 0.873620753441643, -0.00730885563728724, -0.486552525207021
-0.55242071042815, 0.050402385282711, 1.07796824067745, -0.873620753441643, 0.00730885563728724, 0.486552525207021
-0.840834769404599, -0.139280478134743, -0.570464892658781, -0.85829965691705, 0.0023489310362872, -0.513143431663176
0.900004158818057, -0.14404467739164, 0.470313877787996, 0.85829965691705, -0.0023489310362872, 0.513143431663176
-0.582535364769778, 0.415479253226459, -1.01400460297107, -0.00334334744365501, -0.0017805084343562, -0.999992825883059
-0.575755007408938, 0.419090150290668, 1.01399542754651, 0.00334334744365501, 0.0017805084343562, 0.999992825883059
-0.427172530273561, 0.875532023009035, -1.0177966746155, -0.00552824975615332, -0.0183004285500566, -0.99981724968592
-0.415959189514284, 0.912652079161379, 1.01020350848997, 0.00552824975615332, 0.0183004285500566, 0.99981724968592
-0.38469539318918, 0.0514074620772617, -0.509692857450545, -0.736361321361442, 0.00414733957376505, -0.676575793224449
0.540397303954374, 0.0461971482802646, 0.340291120820939, 0.736361321361442, -0.00414733957376505, 0.676575793224449
0.657193949300588, -1.94258040403869, -0.0150844437617594, 0.949324005338321, 0.00809341504584969, -0.314194890985362
-0.537080991190135, -1.95276213621642, 0.380181116388387, -0.949324005338321, -0.00809341504584969, 0.314194890985362
1.11798750737108, 0.0438335240847439, 0.294295356760531, 0.246321856962304, -0.958245773921957, 0.145225960294128
0.913985126999983, 0.837447299457249, 0.174020030985385, -0.246321856962304, 0.958245773921957, -0.145225960294128
0.712209342584174, -2.52413582646696, 0.334173583889641, 0.0671837972642224, -0.997649281010469, 0.0134999809056809
0.487800201043647, 0.808239356638506, 0.289080581570306, -0.0671837972642224, 0.997649281010469, -0.0134999809056809
1.10081984737385, 0.770363051740103, -0.156826401480115, 0.861249864571054, -0.0908945725821175, -0.499986847278461
-0.652515266151544, 0.955406501141958, 0.86104835437926, -0.861249864571054, 0.0908945725821175, 0.499986847278461
0.338301582336426, -0.277673149108887, -0.531069259643555, 0.548371595684752, -0.0284213407294593, -0.835751649975816
-0.35217227935791, -0.24188684463501, 0.5212548828125, -0.548371595684752, 0.0284213407294593, 0.835751649975816
-0.627301255520312, -2.51481599278739, -0.207891304773544, -0.999954561105454, 0.00289255933854481, -0.00908343684249686
0.630615233127149, -2.51845475621512, -0.196464580578064, 0.999954561105454, -0.00289255933854481, 0.00908343684249686
-0.351566467285156, -2.5375, -0.286630401611328, 0.00697967473090739, -0.999970170015707, 0.00330805371912533
-0.374826927185059, 0.795, -0.297654819488525, -0.00697967473090739, 0.999970170015707, -0.00330805371912533
-0.541916404634751, -1.9946398079652, -0.36750617258958, -0.956092814347975, 0.0387153367153176, -0.290495530181081
0.660359100431167, -2.04332388999645, -0.00221144907883829, 0.956092814347975, -0.0387153367153176, 0.290495530181081
-0.449382536120144, 0.726713268304894, -1.02979653253338, -3.31576413344451e-05, 0.330507901024547, -0.943803224332763
-0.449311334795681, 0.0169945020924305, 0.996886817075998, 3.31576413344451e-05, -0.330507901024547, 0.943803224332763
-0.600545387268066, -2.5356298828125, 0.0385904812812805, -0.00817194718154426, -0.999923621723075, 0.00927200083429762
-0.573325576782227, 0.795, 0.00770651936531067, 0.00817194718154426, 0.999923621723075, -0.00927200083429762
0.0532931822210077, -1.07641791599446, -0.631675520636121, 0.231105341256081, 0.00877355468651055, -0.972889174562587
-0.237280796203065, -1.0874491049593, 0.591560067437609, -0.231105341256081, -0.00877355468651055, 0.972889174562587
-0.0107673919877666, 0.836482263535614, 0.0310818967066413, 0.0524247941325145, 0.977913197913464, -0.202329973822037
-0.189347863265004, -2.49469342616165, 0.720301237984717, -0.0524247941325145, -0.977913197913464, 0.202329973822037
0.0225294900474534, -1.88485766712304, -0.651703535829368, 0.291458428752168, -0.00808992579901437, -0.956549286450982
-0.344307630008699, -1.87467547718164, 0.5522341472761, -0.291458428752168, 0.00808992579901437, 0.956549286450982
1.21408297988565, 0.487819158320221, 0.112672121660239, 0.863485724043257, 0.17862477947892, -0.471683784467517
-0.562902112277433, 0.120223538164887, 1.0833599163456, -0.863485724043257, -0.17862477947892, 0.471683784467517
-0.445893325552649, -1.35284553816274, -0.437970466382605, -0.665980479977997, -0.0228127553351914, -0.745620264264789
0.391439552560144, -1.32416321089223, 0.499492988817591, 0.665980479977997, 0.0228127553351914, 0.745620264264789
-0.264448124250103, -2.47633726884267, -0.602776122787198, -0.102601256101732, -0.0157310829386423, -0.994598167742091
-0.13542131789558, -2.45655455399892, 0.647986587784091, 0.102601256101732, 0.0157310829386423, 0.994598167742091
-0.619945526123047, -0.437614936828613, 0.110047645568848, -0.987887884232563, 0.00320791413624119, 0.155136190082796
0.623631782531738, -0.441653137207031, -0.0852415657043457, 0.987887884232563, -0.00320791413624119, -0.155136190082796
-0.706336083418467, -2.52022562486488, 0.207620175255733, -0.13622413192376, -0.990665303993091, 0.00502407662108137
-0.24834874630604, 0.810404257947617, 0.19072916306396, 0.13622413192376, 0.990665303993091, -0.00502407662108137
-0.356935386657715, -1.64173904418945, -0.517929496765137, -0.554896173980135, 0.020935547635847, -0.831656142253152
0.341121444702148, -1.66807586669922, 0.528290100097656, 0.554896173980135, -0.020935547635847, 0.831656142253152
-0.908640213012695, 0, 0.156233167648315, -0.0153150725885845, -0.997945702087425, 0.0622079113686012
-0.896439666748047, 0.795, 0.106676073074341, 0.0153150725885845, 0.997945702087425, -0.0622079113686012
-0.438833465576172, 0, -0.832831420898438, 0.0106072614309613, -0.999647642080303, 0.0243326465520214
-0.44726921081543, 0.795, -0.852182693481445, -0.0106072614309613, 0.999647642080303, -0.0243326465520214
0.588703355293547, -0.0377361123229984, 0.89226999336893, -0.197316753862452, -0.9796898040676, -0.0356929467986587
0.747703256111418, 0.751708162579345, 0.921031742636508, 0.197316753862452, 0.9796898040676, 0.0356929467986587
-0.251713409423828, 0, -0.713364944458008, 0.0608094756722696, -0.998137861724665, 0.00479756815251571
-0.300147132873535, 0.795, -0.717186126708984, -0.0608094756722696, 0.998137861724665, -0.00479756815251571
1.02895572186237, -0.00870825134766662, -0.336736765299183, -0.0314413979512664, -0.997516789951764, 0.0630213635142709
1.0540138578487, 0.786291748652333, -0.38696347275768, 0.0314413979512664, 0.997516789951764, -0.0630213635142709
-0.831643676757812, 0.700643310546875, -0.586662940979004, -0.860862010519842, 0.0743634792484013, -0.503375279287538
0.918675155639648, 0.549446258544922, 0.436807975769043, 0.860862010519842, -0.0743634792484013, 0.503375279287538
1.1437645360101, 0.805200250578009, -0.0131166884369024, 0.850118744286579, 0.22985771339672, -0.473775845948948
-0.627251928223303, 0.326347387266242, 0.973880515390002, -0.850118744286579, -0.22985771339672, 0.473775845948948
0.367219797580195, -0.314325250942502, -0.527381947568309, 0.38136013581352, -0.00197357055287631, -0.924424443549372
-0.111809991390752, -0.311846231777463, 0.633795649477589, -0.38136013581352, 0.00197357055287631, 0.924424443549372
0.471130867004395, -2.35478042602539, -0.416288528442383, 0.730787291545346, 0.0137987137578792, -0.682465772046075
-0.448066101074219, -2.37213668823242, 0.442128791809082, -0.730787291545346, -0.0137987137578792, 0.682465772046075
-0.814435653686523, 0, 0.124001026153564, 0.179782781860788, -0.974750970904193, -0.13243374217974
-0.960886383056641, 0.794030380249024, 0.231881313323975, -0.179782781860788, 0.974750970904193, 0.13243374217974
0.124520263671875, -0.25511344909668, -0.616085014343262, 0.180464840372271, 0.00447492881535369, -0.983571256392494
-0.102388467788696, -0.260740032196045, 0.620615196228027, -0.180464840372271, -0.00447492881535369, 0.983571256392494
0.343409779957485, 0.0101503086100916, -0.3656165171036, -0.0494557781688569, -0.99795726817608, 0.0404402880831485
0.382849362782192, 0.805992974341998, -0.397866501844811, 0.0494557781688569, 0.99795726817608, -0.0404402880831485
-0.188476219177246, 0.476276702880859, -1.01400009155273, 0.00929248839142111, 0.00421703319838152, -0.9999479317897
-0.207322368621826, 0.467724113464355, 1.01400009155273, -0.00929248839142111, -0.00421703319838152, 0.9999479317897
-0.0864957146921044, -0.357891503733978, -0.650111411992083, 0.155653972180167, 0.0143266584075411, -0.98770774412445
-0.282507572678555, -0.375932771128997, 0.593688713129988, -0.155653972180167, -0.0143266584075411, 0.98770774412445
-1.06180686314155, 0.902630140658529, -0.19167502373315, -0.872159957461292, -0.0163931120917423, -0.48894608545019
0.706901480364314, 0.935874769564779, 0.799889669717777, 0.872159957461292, 0.0163931120917423, 0.48894608545019
0.925833788274686, 0.0988753680088559, -0.392290274469375, 0.788622309943951, -0.00550260533983618, -0.61485329436634
-0.688374242425998, 0.11013849056745, 0.866235020788194, -0.788622309943951, 0.00550260533983618, 0.61485329436634
-0.0466589832305908, -0.339292068481445, -0.62792163848877, -0.103200981071089, 0.0404509157624175, -0.993837653200937
0.0833237838745117, -0.390240440368652, 0.623827781677246, 0.103200981071089, -0.0404509157624175, 0.993837653200937
0.0199801731109619, -1.7402424621582, -0.627857933044434, 0.0105156015255796, -0.00610435011157695, -0.999926076784814
0.00676702320575714, -1.73257217407227, 0.62857738494873, -0.0105156015255796, 0.00610435011157695, 0.999926076784814
-0.002305091396519, -1.98817888746075, -0.63197887655797, 0.109280528848878, 0.00866927386483125, -0.993973143352056
-0.139594939724156, -1.99907015332989, 0.616756131681776, -0.109280528848878, -0.00866927386483125, 0.993973143352056
-1.25197676545409, 0.490024955732417, 0.091991197144477, -0.833871914870034, 0.260848982813029, -0.486431328921557
0.48950394743654, -0.0547391314677479, 1.10786757138917, 0.833871914870034, -0.260848982813029, 0.486431328921557
-0.240168141398047, 0.0116096147359912, -1.15557563514385, -0.0295011890266595, -0.997390857418035, -0.0658874599975618
-0.216785992655371, 0.8021249177517, -1.10335433692608, 0.0295011890266595, 0.997390857418035, 0.0658874599975618
-0.547125869279173, -0.864575164058776, -0.359649358320296, -0.952737290738525, -0.0145082073380003, -0.3034487876991
0.651509003157351, -0.846322447994323, 0.0221183151721358, 0.952737290738525, 0.0145082073380003, 0.3034487876991
-0.551816436456743, -2.01613708482247, -0.340889432017541, -0.707133531786674, -0.0204593069766024, -0.706783973347544
0.336859405828414, -1.9904252623127, 0.547347109730506, 0.707133531786674, 0.0204593069766024, 0.706783973347544
-0.622656631469727, -0.836170043945312, -0.0902047538757324, -0.990693684680538, -0.013036293109953, -0.135484605014922
0.623000679016113, -0.819778747558594, 0.0801479911804199, 0.990693684680538, 0.013036293109953, 0.135484605014922
-0.664892773749957, 0.0965769540485356, -0.931006806288805, -0.926233030903987, 0.0158739183981903, -0.376617035165832
1.22565539824711, 0.0641764604267095, -0.162288110648241, 0.926233030903987, -0.0158739183981903, 0.376617035165832
-0.273157486062759, -2.54441253900409, -0.0741972350468934, 0.203032868904587, -0.971537059555392, -0.122038502345918
-0.969049400430435, 0.785515210629697, 0.344087781966656, -0.203032868904587, 0.971537059555392, 0.122038502345918
-0.628913458369423, -0.396295710712225, 0.205458188557405, -0.999998630716526, -0.00108298106552344, -0.00125128617252336
0.629041100956749, -0.394933367877752, 0.207032251858492, 0.999998630716526, 0.00108298106552344, 0.00125128617252336
-0.488428830037683, 0.0091661654709381, 0.611768686600201, -0.00424899595969115, -0.998928088691577, -0.0460935966955003
-0.485047253499597, 0.804166165470938, 0.648452417679303, 0.00424899595969115, 0.998928088691577, 0.0460935966955003
-0.0186145287020939, -1.68895433518288, -0.635864623403258, 0.139130452979194, 0.0138839908120273, -0.990176727586008
-0.19364281945069, -1.70642061325905, 0.609793221140199, -0.139130452979194, -0.0138839908120273, 0.990176727586008
-0.00499818593762843, -2.53407412349733, 0.722774797872295, -0.138762975722903, -0.987271201563207, -0.077720081912373
0.462610599691644, 0.79287015140501, 0.984678904012431, 0.138762975722903, 0.987271201563207, 0.077720081912373
0.0143746566772461, -2.5375, -0.0821180152893066, -0.011126537094051, -0.999868288831631, -0.0118154628009518
0.0514587259292603, 0.795, -0.0427377986907959, 0.011126537094051, 0.999868288831631, 0.0118154628009518
0.915542984008789, 0.214175319671631, -0.442232933044434, 0.852855571654908, -0.0117219935456977, -0.522015295527339
-0.814736328125, 0.237956981658936, 0.616835327148437, -0.852855571654908, 0.0117219935456977, 0.522015295527339
-0.288967685699463, -0.0587668657302856, -0.558265686035156, -0.466694682882661, -0.115306451156687, -0.876869713977341
0.54756031036377, 0.147914457321167, 1.01348152160645, 0.466694682882661, 0.115306451156687, 0.876869713977341
-1.19979108226627, 0.0110896286840847, -0.175200004174626, 0.00238364534872041, -0.997675067088076, -0.0681085805582157
-1.20169049632877, 0.806089628684085, -0.120927502705967, -0.00238364534872041, 0.997675067088076, 0.0681085805582157
-0.065428438078889, -2.08908776080565, -0.649149283068515, 0.168070716446273, -0.000548922111531153, -0.985774788152827
-0.276882457625398, -2.08839714801268, 0.591078912121914, -0.168070716446273, 0.000548922111531153, 0.985774788152827
-0.365162640053878, 0.933890603737286, -0.957248620028715, -3.31576413344451e-05, 0.330507901024547, -0.943803224332763
-0.365091438729416, 0.224171837524823, 1.06943472958066, 3.31576413344451e-05, -0.330507901024547, 0.943803224332763
1.19483763946191, 0.574654110461762, 0.0400915589662367, 0.872299553474765, -0.0126800368092429, -0.488807432098001
-0.574473731387698, 0.600373409778169, 1.03155434754808, -0.872299553474765, 0.0126800368092429, 0.488807432098001
-0.628726806640625, -0.345224685668945, 0.0120888125896454, -0.999998630716526, -0.00108298106552344, -0.00125128617252336
0.629227752685547, -0.343862342834473, 0.0136628758907318, 0.999998630716526, 0.00108298106552344, 0.00125128617252336
0.414987933716229, -0.121925712499473, -0.529322713120794, 0.863443348823152, -0.0264395874849867, -0.503752450700425
-1.00298703424031, -0.0785057553385234, 0.297956072584772, -0.863443348823152, 0.0264395874849867, 0.503752450700425
-0.626939888000488, -0.772960357666016, 0.0561431789398193, -0.994804881952899, -0.0174828808276567, 0.100287565134688
0.625928039550781, -0.750942230224609, -0.0701600551605225, 0.994804881952899, 0.0174828808276567, -0.100287565134688
0.911350783546619, -0.00444853882749552, -0.439381266042883, -0.0206849656340408, -0.99973086891933, 0.0105034245139179
0.927799758155994, 0.790551461172504, -0.447733736440833, 0.0206849656340408, 0.99973086891933, -0.0105034245139179
0.103564485775448, -1.361118306004, -0.638428030364224, -0.0832698086356616, 0.0059799501501209, -0.996509096378945
0.208204712139584, -1.3686329544415, 0.613825807221226, 0.0832698086356616, -0.0059799501501209, 0.996509096378945
-1.19751640593932, 0.592909977531034, 0.0446990556814938, -0.873720520663947, -0.0131769418896846, -0.486249750615008
0.572476155401014, 0.61960397014578, 1.02974910450962, 0.873720520663947, 0.0131769418896846, 0.486249750615008
-0.601606788635254, -0.944853973388672, -0.184757556915283, -0.952737290738525, -0.0145082073380003, -0.3034487876991
0.59702808380127, -0.926601257324219, 0.197010116577148, 0.952737290738525, 0.0145082073380003, 0.3034487876991
-0.0255144379100427, -1.90515472154776, -0.653276429509047, -0.314340511979757, 0.00766921360812852, -0.949279319110522
0.370055477861442, -1.9148057530419, 0.541308188105699, 0.314340511979757, -0.00766921360812852, 0.949279319110522
0.568713738460676, -0.0261024229409892, -0.3308978297823, 0.669617743421585, 0.0260481034875472, -0.742248997304602
-0.273335211734637, -0.0588580934884746, 0.602485425222583, -0.669617743421585, -0.0260481034875472, 0.742248997304602
0.656878129153664, -0.542222229774021, -0.0253088071597931, 0.950816206837517, 0.0439215914780717, -0.306625887062963
-0.540348852963035, -0.597526413733982, 0.360781357024777, -0.950816206837517, -0.0439215914780717, 0.306625887062963
-0.611538442739853, 0.368581453382498, -0.979936716959468, -0.875979473066937, -0.0188526898963418, -0.481979811661281
1.16564035975038, 0.406829610883719, -0.00210067074059584, 0.875979473066937, 0.0188526898963418, 0.481979811661281
-1.02324579575491, 0.00511301236256358, 0.444301210801899, -0.0324748249577204, -0.999273353684053, 0.0199537054451464
-0.997441047219757, 0.799143392611587, 0.428445841234028, 0.0324748249577204, 0.999273353684053, -0.0199537054451464
-0.058126315840367, -2.29765824015683, -0.663302499282544, 0.243408477145851, -0.0103811737947083, -0.969868312960157
-0.36429536796439, -2.2846003788287, 0.556637190353686, -0.243408477145851, 0.0103811737947083, 0.969868312960157
-0.418706578408966, -0.141048892396276, -0.986819225552409, -0.00228126541305269, -0.17474972258202, -0.984610242829934
-0.414011048471222, 0.218638564092334, 1.03980461477962, 0.00228126541305269, 0.17474972258202, 0.984610242829934
0.149181180284826, -2.7079601380404, -0.54991539555974, 0.308151273391582, -0.289649555203497, -0.90617102573276
-0.254924902631434, -2.32811699839196, 0.638427004037428, -0.308151273391582, 0.289649555203497, 0.90617102573276
-0.628126944219182, -1.20621553227754, -0.115985826131301, -0.999991006621815, -0.000983230069195497, 0.00412552228454687
0.627507478083064, -1.2049809436545, -0.1211660205092, 0.999991006621815, 0.000983230069195497, -0.00412552228454687
-0.579218673706055, 0, 0.61325511932373, 0.0221448318748545, -0.999612761798898, 0.0168503077127229
-0.596830635070801, 0.795, 0.599853935241699, -0.0221448318748545, 0.999612761798898, -0.0168503077127229
0.395413193541734, 0.0287651323582022, -0.66319578263947, 0.0612720761259323, -0.988495018745652, 0.138287131007378
0.346160683470933, 0.823349940707812, -0.774355526902166, -0.0612720761259323, 0.988495018745652, -0.138287131007378
-0.615488386712114, -1.96117298237646, -0.185865149921673, -0.860294860559401, 0.0375286941295574, -0.508413561986707
0.466434983649214, -2.00836979023779, 0.453525528484089, 0.860294860559401, -0.0375286941295574, 0.508413561986707
-0.267998714447022, -0.464882125854492, -0.568559684753418, -0.390661424397169, -0.0269384811238319, -0.920140190255113
0.222590045928955, -0.431053047180176, 0.586943283081055, 0.390661424397169, 0.0269384811238319, 0.920140190255113
0.283453254968375, -1.47489006926476, -0.592276641138608, 0.147072382365187, 0.0205304665707034, -0.988912642394574
0.0984919121567902, -1.50070961882531, 0.651400841466373, -0.147072382365187, -0.0205304665707034, 0.988912642394574
1.10230083465647, 0.0582538543978184, 0.416051762418805, 0.246321856962304, -0.958245773921957, 0.145225960294128
0.898298454285376, 0.851867629770324, 0.295776436643659, -0.246321856962304, 0.958245773921957, -0.145225960294128
0.521208419799805, 0.658332748413086, -1.01400009155273, 0.00826366937416735, 0.000771414998516739, -0.999965557750553
0.504449119567871, 0.656768264770508, 1.01400009155273, -0.00826366937416735, -0.000771414998516739, 0.999965557750553
-0.626109405913146, -0.644351784113094, -0.117735570903263, -0.941373005060329, -0.00315012090053811, -0.337352845077669
0.557205451569764, -0.64039205205743, 0.306320177082576, 0.941373005060329, 0.00315012090053811, 0.337352845077669
-0.823252801150656, 0.685379216616243, -0.602106835071214, -0.829477173170837, 0.311732720844925, -0.463454776588975
0.939835272579813, 0.0227784120489063, 0.382985480602614, 0.829477173170837, -0.311732720844925, 0.463454776588975
1.11998242289342, -0.00256817943476763, 0.244391612728362, 9.43488585960946e-05, -0.999122195849218, -0.0418906774799466
1.11990734965123, 0.792431820565232, 0.277723960598235, -9.43488585960946e-05, 0.999122195849218, 0.0418906774799466
-0.423409266778441, -2.53554036699696, 0.613495991617408, -0.00598437335945417, -0.999949872962974, 0.00802738044616919
-0.403465342828246, 0.796959633003039, 0.586743405252662, 0.00598437335945417, 0.999949872962974, -0.00802738044616919
0.342305228275612, -0.567359455173317, -0.547812806172863, 0.293312438431372, 0.0388510841193951, -0.955226887563468
-0.0271506814533917, -0.616296222751442, 0.655389555887684, -0.293312438431372, -0.0388510841193951, 0.955226887563468
-1.22699051642978, 0.591897438993714, -0.102644996329357, -0.868376998246686, -0.0237522511660043, 0.49533546156178
0.534353821033603, 0.640074547758362, -1.1073426243506, 0.868376998246686, 0.0237522511660043, -0.49533546156178
0.235445657366803, -0.0421842415030307, -0.885531515093609, 0.00694605648016174, -0.925275649122496, -0.379231756898493
0.229482141131451, 0.752208428852707, -0.559943212481304, -0.00694605648016174, 0.925275649122496, 0.379231756898493
0.0765469591628841, -1.36693427032146, -0.620806783963795, 0.147072382365187, 0.0205304665707034, -0.988912642394574
-0.1084143836487, -1.392753819882, 0.622870698641185, -0.147072382365187, -0.0205304665707034, 0.988912642394574
0.336690564233626, -2.55016882579105, 0.279134573849203, 0.0671837972642224, -0.997649281010469, 0.013499980905681
0.112281422693099, 0.782206357314415, 0.234041571529867, -0.0671837972642224, 0.997649281010469, -0.013499980905681
1.15646240448016, 0.0593897698801695, -0.0255394900631857, 0.870142558233823, 0.0168151763596096, -0.492513124895462
-0.608500745544259, 0.0252825234812438, 0.97345487944365, -0.870142558233823, -0.0168151763596096, 0.492513124895462
-0.282617947164255, -1.97370755828884, -0.566740550581839, -0.576979218986287, 0.0207680351507891, -0.816494745588697
0.443711169657034, -1.99985135711696, 0.461102199967477, 0.576979218986287, -0.0207680351507891, 0.816494745588697
0.371764858964152, -2.51762060304645, 0.351682184326715, 0.0049233997322004, -0.990931976338075, -0.134274265612563
0.355225876572794, 0.811178072490655, 0.802744424927301, -0.0049233997322004, 0.990931976338075, 0.134274265612563
1.18078577049088, 0.211738682550439, -0.0528338415218617, 0.863485724043257, 0.17862477947892, -0.471683784467517
-0.596199321672201, -0.155856937604896, 0.917853953163502, -0.863485724043257, -0.17862477947892, 0.471683784467517
-0.0920600891113281, 0.381916122436523, -1.01400001525879, -0.00213343194327849, 0.0168044146184875, -0.999856519765448
-0.0877328681945801, 0.347831878662109, 1.01400001525879, 0.00213343194327849, -0.0168044146184875, 0.999856519765448
0.176972685216268, 0.0125767662053393, -1.1476483196472, 0.0384165246757892, -0.998018424832957, -0.0498336665897404
0.146370908377966, 0.807576766205339, -1.10795189325559, -0.0384165246757892, 0.998018424832957, 0.0498336665897404
0.960709317580915, -0.0120707514035762, 0.124719185705359, -0.245279363581743, -0.960266019096456, 0.133143555493983
1.16351106013463, 0.781895847107166, 0.0146335076047732, 0.245279363581743, 0.960266019096456, -0.133143555493983
0.523047750853958, -0.209003212057308, -0.339535401084456, 0.863443348823152, -0.0264395874849867, -0.503752450700425
-0.894927217102585, -0.165583254896359, 0.48774338462111, -0.863443348823152, 0.0264395874849867, 0.503752450700425
0.282988136706441, -2.326584054143, -0.582767256452292, 0.631227934137097, -0.00923250363408292, -0.775542426977183
-0.511600295605571, -2.31496219745355, 0.393483964250833, -0.631227934137097, 0.00923250363408292, 0.775542426977183
-0.627238942166349, -1.15072245891355, 0.112483797845357, -0.999991006621815, -0.000983230069195497, 0.00412552228454687
0.628395480135897, -1.14948787029051, 0.107303603467458, 0.999991006621815, 0.000983230069195497, -0.00412552228454687
0.00912228090770547, -2.02315731301985, -0.665699233597765, -0.314340511979757, 0.00766921360812852, -0.949279319110522
0.40469219667919, -2.03280834451399, 0.528885384016981, 0.314340511979757, -0.00766921360812852, 0.949279319110522
0.599311332702637, -1.81550231933594, -0.190748043060303, 0.947694274631863, 0.0212628776932616, -0.318470488212313
-0.592940559387207, -1.84225219726562, 0.209905471801758, -0.947694274631863, -0.0212628776932616, 0.318470488212313
0.285330810215037, -2.53910921719526, 0.026031744579354, -0.0133623286214502, -0.999888806822387, 0.00661983119991912
0.329865722324412, 0.793390782804737, 0.00396870384601657, 0.0133623286214502, 0.999888806822387, -0.00661983119991912
-0.624312973022461, -1.43063995361328, 0.0838777542114258, -0.99166206563783, 0.00361802857749559, 0.128814818418241
0.62430290222168, -1.43519546508789, -0.0783148241043091, 0.99166206563783, -0.00361802857749559, -0.128814818418241
-0.792566291720332, -2.50947623780234, -0.0108459334958525, -0.13622413192376, -0.990665303993091, 0.00502407662108137
-0.334578954607905, 0.821153645010156, -0.027736945687625, 0.13622413192376, 0.990665303993091, -0.00502407662108137
-0.390623533983515, -2.53505340832829, -0.179620651163018, -0.000122253386663767, -0.999905745268484, -0.0137290069992891
-0.390216086168573, 0.797446591671712, -0.133864422596848, 0.000122253386663767, 0.999905745268484, 0.0137290069992891
0.0790520826526747, 0.812435950370963, 0.333153424190717, -0.0844053454390867, 0.993401264718329, -0.0776509170411537
0.362142359370814, -2.51937007990247, 0.593589768337445, 0.0844053454390867, -0.993401264718329, 0.0776509170411537
0.427981262207031, -2.5375, 0.340820236206055, 0.000436265101667263, -0.999944794928898, 0.0104984173742691
0.426527328491211, 0.795, 0.305832328796387, -0.000436265101667263, 0.999944794928898, -0.0104984173742691
-1.03142365595851, 0.663581468305439, -0.193025403837503, -0.833871914870034, 0.260848982813029, -0.486431328921557
0.710057056932119, 0.118817381105274, 0.822850970407187, 0.833871914870034, -0.260848982813029, 0.486431328921557
0.401608848571777, -1.9339990234375, -0.484204025268555, 0.689110546781466, -0.00606266638624501, -0.724630870437382
-0.462582740783691, -1.92639602661133, 0.424532470703125, -0.689110546781466, 0.00606266638624501, 0.724630870437382
-0.571376210447387, -2.39137635539927, -0.320562878122788, -0.972808624380599, -0.0274551024835249, -0.229977385145467
0.652100008729859, -2.35684678386607, -0.0313262753395847, 0.972808624380599, 0.0274551024835249, 0.229977385145467
0.263405403630637, -0.008677995750941, 0.621916471410066, -0.0043501212586703, -0.99825171853379, 0.0589455926203965
0.266869806783103, 0.786322004249059, 0.574972654271394, 0.0043501212586703, 0.99825171853379, -0.0589455926203965
0.25412293343581, 0.332838723344115, -1.0128512404312, 0.0212390672734254, -0.00507955383594804, -0.999761521641128
0.21103982834853, 0.343142516297607, 1.01514886638033, -0.0212390672734254, 0.00507955383594804, 0.999761521641128
0.0513143281936097, -1.58647789779111, -0.646819180772158, 0.335370516193641, 0.0236986691857396, -0.941788187410967
-0.370696246147211, -1.61629891219541, 0.538271799757627, -0.335370516193641, -0.0236986691857396, 0.941788187410967
-1.0028931427002, 0.461670379638672, -0.290938186645508, -0.86078877939108, -0.149238884528621, -0.486590621178694
0.762220230102539, 0.767696151733398, 0.706853179931641, 0.86078877939108, 0.149238884528621, 0.486590621178694
-0.189475841522217, -0.658068313598633, -0.600459785461426, -0.261000060077319, 0.011095527764934, -0.965275016719719
0.138900680541992, -0.672028121948242, 0.613998374938965, 0.261000060077319, -0.011095527764934, 0.965275016719719
0.944153671264648, 0.0821836948394775, -0.392678108215332, 0.876179393198204, -0.00469213471342383, -0.481962296042604
-0.833138580322266, 0.091701488494873, 0.584961700439453, -0.876179393198204, 0.00469213471342383, 0.481962296042604
0.751879803844226, 0.779534606636712, -0.965119500223862, 0.243512928287621, -0.0020894714939546, -0.9698954004766
0.242885167308582, 0.783902053536127, 1.06217145436598, -0.243512928287621, 0.0020894714939546, 0.9698954004766
-0.408709626877053, -0.0758322969704026, -0.488315012780016, -0.499163721152862, 0.0148245228916554, -0.866380870637079
0.21876578739907, -0.0944675127296799, 0.600771939429457, 0.499163721152862, -0.0148245228916554, 0.866380870637079
0.874379257790165, 0.195447679666776, -0.598498036407152, 0.846644436940481, 0.237104296990489, -0.476418670652591
-0.559441085227413, -0.206096285672884, 0.208332732178053, -0.846644436940481, -0.237104296990489, 0.476418670652591
-0.538997971214876, -1.83088717333627, -0.362766155275079, -0.947121034625089, -0.0298111544832797, -0.319488717858822
0.652112143836394, -1.79339632860971, 0.0390264663374693, 0.947121034625089, 0.0298111544832797, 0.319488717858822
1.00560699462891, 0, -0.174523735046387, -0.03551474568593, -0.99826476332501, -0.0469698322599174
1.03385353088379, 0.793966598510742, -0.137166433334351, 0.03551474568593, 0.99826476332501, 0.0469698322599174
-0.57587404794717, -1.17360953993812, 0.313579616345788, -0.978199006446083, 0.0262575068306967, 0.206003026975168
0.654679579066991, -1.20664092726722, 0.0544321725744258, 0.978199006446083, -0.0262575068306967, -0.206003026975168
-0.629446551875962, -2.64796692944945, -0.014126332220134, -0.999954561105454, 0.00289255933854481, -0.00908343684249686
0.628469936771499, -2.65160569287719, -0.00269960802465365, 0.999954561105454, -0.00289255933854481, 0.00908343684249686
-0.370350761413574, 0.5815478515625, -1.01400001525879, 0.000313942239221677, 0.0152828293284852, -0.999883161458371
-0.370987510681152, 0.550550651550293, 1.01400001525879, -0.000313942239221677, -0.0152828293284852, 0.999883161458371
0.283211312841171, 0.0120828172842866, 0.475954471878616, 0.0126754381101905, -0.998130817919239, -0.0597846434177271
0.273115468572372, 0.807082817284287, 0.523572269730178, -0.0126754381101905, 0.998130817919239, 0.0597846434177271
-0.48223877673114, -1.62008691498475, -0.419506790489181, -0.858743802711128, -0.00417907100898376, -0.51238815040039
0.59727538342511, -1.61483346649842, 0.22460879102327, 0.858743802711128, 0.00417907100898376, 0.51238815040039