-0.5, 1.94612335205078, -1.45220504760742, -1, 0, 0
-0.5, -0.340856246948242, 0.975094604492188, -1, 0, 0
0.5, 1.66361282348633, -0.887127227783203, 1, 0, 0
-0.5, -1.57206268310547, -0.861753005981445, -1, 0, 0
0.5, 0.484163131713867, 0.856418609619141, 1, 0, 0
0.5, -0.980638198852539, 0.178355560302734, 1, 0, 0
-0.410820655822754, 2, 0.77421012878418, 0, 1, 0
0.5, -0.285269985198975, -0.440881156921387, 1, 0, 0
-0.5, 1.78601089477539, -1.11323600769043, -1, 0, 0
-0.342430953979492, -0.38344856262207, -2, 0, 0, -1
-0.353292922973633, -2, -0.109112367630005, 0, -1, 0
-0.0211410450935364, -0.627902030944824, 2, 0, 0, 1
0.5, -0.632782897949219, 1.81550262451172, 1, 0, 0
0.280849151611328, -1.78280136108398, -2, 0, 0, -1
0.324728927612305, -2, -1.58379806518555, 0, -1, 0
0.5, -0.0896046257019043, 1.18588859558105, 1, 0, 0
0.329921226501465, 0.287469787597656, 2, 0, 0, 1
-0.318602676391602, 1.15874877929687, -2, 0, 0, -1
0.5, 0.567263679504394, 0.546715507507324, 1, 0, 0
0.5, -0.84478401184082, 0.977574920654297, 1, 0, 0
0.5, 1.32638763427734, -0.0274892282485962, 1, 0, 0
0.5, -0.574030990600586, 0.283931541442871, 1, 0, 0
-0.100517091751099, -1.05241149902344, 2, 0, 0, 1
-0.5, -1.35105178833008, 1.2443132019043, -1, 0, 0
0.5, 1.82002197265625, 0.352896194458008, 1, 0, 0
-0.190644130706787, -2, 0.794373779296875, 0, -1, 0
-0.305800685882568, 0.752225799560547, -2, 0, 0, -1
0.016120080947876, -2, -1.57211456298828, 0, -1, 0
0.5, -0.863540649414062, 0.0823538780212402, 1, 0, 0
-0.144558868408203, 2, -0.630452194213867, 0, 1, 0
0.5, 1.33852554321289, 0.865429153442383, 1, 0, 0
0.5, 1.1454736328125, 0.2660426902771, 1, 0, 0
0.5, 0.216556625366211, 0.777586059570313, 1, 0, 0
0.5, 1.04074501037598, 1.49278091430664, 1, 0, 0
0.5, -0.455680274963379, -0.494367179870605, 1, 0, 0
-0.5, 0.821526031494141, -0.0317828941345215, -1, 0, 0
0.5, -1.05450019836426, -1.86637176513672, 1, 0, 0
0.5, -0.24119535446167, 1.53143920898438, 1, 0, 0
0.499129257202148, 0.654138336181641, -1.95929550170898, 0.997902810573578, 0, -0.0647299140691757
-0.5, -0.642342224121094, 1.286884765625, -1, 0, 0
0.5, 0.826782455444336, -1.42841339111328, 1, 0, 0
0.5, 1.16981323242188, -1.20194412231445, 1, 0, 0
0.0237831354141235, -2, 0.000254013054072857, 0, -1, 0
-0.5, -0.544235191345215, -1.33206787109375, -1, 0, 0
0.5, -1.61497222900391, -0.236927223205566, 1, 0, 0
-0.183215980529785, -2, -0.459831123352051, 0, -1, 0
0.497583999633789, 1.97258377075195, 1.08437316894531, 0.948683261871338, 0.31622776389122, 0
-0.5, 0.657103729248047, -0.950143585205078, -1, 0, 0
-0.5, -0.459862365722656, -1.24584671020508, -1, 0, 0
0.443539848327637, 2, -0.176440620422363, 0, 1, 0
0.223894481658936, -1.82388198852539, 2, 0, 0, 1
-0.44934741973877, -1.87376113891602, 2, 0, 0, 1
-0.5, -1.31559600830078, -1.10474159240723, -1, 0, 0
0.5, -1.25448181152344, -0.699681701660156, 1, 0, 0
0.423257293701172, 1.99938934326172, 0.958073425292969, 0.141421362757683, 0.989949464797974, 0
-0.5, -1.85501525878906, -0.261637516021729, -1, 0, 0
-0.5, -1.06243293762207, 1.45968338012695, -1, 0, 0
-0.144351005554199, 0.569040336608887, 2, 0, 0, 1
0.5, -0.674912261962891, -1.74017013549805, 1, 0, 0
0.5, -1.93591644287109, -0.429939842224121, 1, 0, 0
0.5, 0.0502870416641235, -0.952227172851563, 1, 0, 0
-0.5, 1.14203804016113, 0.832289810180664, -1, 0, 0
0.5, 1.57708602905273, -1.75900512695313, 1, 0, 0
0.5, -0.638523635864258, -0.0261283755302429, 1, 0, 0
-0.5, 1.11737457275391, 1.57624465942383, -1, 0, 0
-0.5, -1.68628021240234, -0.216379814147949, -1, 0, 0
0.5, -0.328817863464355, 0.9818017578125, 1, 0, 0
0.5, 0.528908081054688, 1.59299514770508, 1, 0, 0
0.424581565856934, -1.0360587310791, -1.99856643676758, 0.0905357524752617, 0, -0.995893239974976
-0.5, 0.371318016052246, 1.40539672851563, -1, 0, 0
0.0121138095855713, -2, 1.57898681640625, 0, -1, 0
0.173251667022705, -1.47788757324219, 2, 0, 0, 1
0.5, -0.528657569885254, -0.0349350047111511, 1, 0, 0
-0.5, -0.795998458862305, 0.47866283416748, -1, 0, 0
0.5, 0.49825309753418, -0.939867858886719, 1, 0, 0
0.5, 1.21774436950684, 0.339224128723145, 1, 0, 0
-0.5, -1.30275848388672, -0.365568428039551, -1, 0, 0
0.5, -0.483949584960937, 1.16251251220703, 1, 0, 0
0.5, -1.68685012817383, -0.470698318481445, 1, 0, 0
0.5, -1.58970397949219, -0.394121131896973, 1, 0, 0
0.366697578430176, -0.590275840759277, -2, 0, 0, -1
-0.5, -0.507967567443848, -0.737129669189453, -1, 0, 0
0.5, -0.659778289794922, -1.63412170410156, 1, 0, 0
-0.199815139770508, -0.897255249023438, 2, 0, 0, 1
-0.5, -0.661285552978516, 0.475896759033203, -1, 0, 0
-0.354641571044922, 2, 1.77383270263672, 0, 1, 0
-0.5, -0.643005828857422, -0.987865524291992, -1, 0, 0
0.5, 0.295263500213623, 0.277466983795166, 1, 0, 0
0.5, 1.15116607666016, -0.762670593261719, 1, 0, 0
-0.155298433303833, 2, -1.04909019470215, 0, 1, 0
0.5, 0.744283294677734, -0.891005096435547, 1, 0, 0
0.188835678100586, -0.0728927612304688, -2, 0, 0, -1
-0.5, -0.119763708114624, 0.888557739257813, -1, 0, 0
-0.5, 1.87961486816406, 1.7471533203125, -1, 0, 0
0.5, -0.338466720581055, 1.06477149963379, 1, 0, 0
0.5, 1.59553802490234, 0.977921981811523, 1, 0, 0
0.5, -1.20371505737305, 1.29441452026367, 1, 0, 0
0.0876237392425537, -0.238997402191162, 2, 0, 0, 1
0.5, 1.73610961914063, 1.55051483154297, 1, 0, 0
0.5, -1.14824127197266, 0.2577268409729, 1, 0, 0
-0.5, 1.14561500549316, -1.43315933227539, -1, 0, 0
0.5, 0.991681747436523, -1.59229904174805, 1, 0, 0
-0.469512977600098, -1.99812789916992, -1.74967330932617, -0.447213590145111, -0.894427180290222, 0
-0.145617551803589, 0.0501351928710937, 2, 0, 0, 1
0.0561841630935669, 0.448610038757324, -2, 0, 0, -1
-0.5, -1.13149681091309, -1.65532958984375, -1, 0, 0
0.5, 0.242332611083984, 0.962435531616211, 1, 0, 0
-0.5, 0.857154083251953, 0.561717147827148, -1, 0, 0
-0.5, 1.55879425048828, 0.34032356262207, -1, 0, 0
0.5, 0.826160430908203, -0.566418952941895, 1, 0, 0
0.5, -1.74157531738281, 0.490951652526855, 1, 0, 0
-0.498759918212891, -1.94312347412109, 0.553473587036133, -0.948683261871338, -0.31622776389122, 0
0.5, -0.472025985717773, 0.592967681884766, 1, 0, 0
-0.331598892211914, 2, -1.14568069458008, 0, 1, 0
0.5, -1.30226501464844, -1.90232757568359, 1, 0, 0
-0.0605268859863281, -0.343752822875977, 2, 0, 0, 1
-0.5, 0.346633682250977, -0.577295341491699, -1, 0, 0
-0.41841869354248, 0.708502883911133, 2, 0, 0, 1
0.126730012893677, -2, -0.59427417755127, 0, -1, 0
0.5, -1.55344085693359, -0.819751510620117, 1, 0, 0
-0.5, 1.14531585693359, -0.0125749778747559, -1, 0, 0
0.5, -1.81703048706055, -0.531621704101563, 1, 0, 0
-0.5, -1.02860191345215, -1.17792358398438, -1, 0, 0
-0.5, -1.29386215209961, 0.200882034301758, -1, 0, 0
0.0725383138656616, -2, 0.0917611885070801, 0, -1, 0
-0.5, -0.336561660766602, 1.08761573791504, -1, 0, 0
0.25236083984375, 1.32119674682617, 2, 0, 0, 1
-0.120577955245972, -1.3377229309082, 2, 0, 0, 1
0.321156921386719, 2, -1.36445724487305, 0, 1, 0
-0.5, -0.433919258117676, -0.124914302825928, -1, 0, 0
-0.5, -0.580087661743164, -1.71586334228516, -1, 0, 0
-0.5, -0.0497851657867432, 0.652727584838867, -1, 0, 0
0.5, 0.330346069335938, -1.56934555053711, 1, 0, 0
0.5, -1.62125244140625, -1.20813697814941, 1, 0, 0
0.5, -1.51139541625977, 0.508220176696777, 1, 0, 0
-0.498270530700684, 1.37506530761719, 1.95335037231445, -0.989949464797974, 0, 0.141421362757683
0.5, -1.45008911132813, 1.47740386962891, 1, 0, 0
0.5, 0.779893417358398, -0.44163402557373, 1, 0, 0
-0.5, -0.234345588684082, -1.80427337646484, -1, 0, 0
0.5, 1.89411804199219, -0.613784255981445, 1, 0, 0
0.5, -1.4405632019043, -0.510779838562012, 1, 0, 0
0.5, 0.77791145324707, -1.5862712097168, 1, 0, 0
0.5, 0.953107070922852, -1.3799446105957, 1, 0, 0
-0.5, -0.638690948486328, 1.65201080322266, -1, 0, 0
-0.5, 0.961488265991211, -0.0762341833114624, -1, 0, 0
0.5, 1.57571685791016, 0.786512069702148, 1, 0, 0
-0.0550556421279907, -1.86131805419922, -2, 0, 0, -1
0.5, -0.797002944946289, 0.81208381652832, 1, 0, 0
-0.5, 0.197142791748047, 0.150083265304565, -1, 0, 0
-0.5, 0.858842620849609, 1.1952961730957, -1, 0, 0
-0.0955440711975098, -2, -0.737716979980469, 0, -1, 0
-0.5, 1.24848045349121, 0.86142204284668, -1, 0, 0
0.5, 1.48744338989258, -0.55473518371582, 1, 0, 0
-0.5, -0.739915008544922, -1.44806777954102, -1, 0, 0
0.5, 0.521174049377441, 1.12098487854004, 1, 0, 0
0.5, -0.729396286010742, 0.548214149475098, 1, 0, 0
-0.5, -0.378716621398926, 1.24136199951172, -1, 0, 0
0.5, -1.8105940246582, -0.923183288574219, 1, 0, 0
0.457235832214355, 2, -0.991613693237305, 0, 1, 0
-0.5, 1.51422760009766, -1.38284545898438, -1, 0, 0
0.5, 0.25432107925415, -1.34801620483398, 1, 0, 0
-0.5, -0.963865661621094, 0.198383693695068, -1, 0, 0
-0.5, 0.662509994506836, -1.07127067565918, -1, 0, 0
0.5, 0.167612571716309, 0.213916759490967, 1, 0, 0
0.5, -0.0482614278793335, 1.3455192565918, 1, 0, 0
-0.110062236785889, -2, 1.63053253173828, 0, -1, 0
0.5, -1.62205627441406, 0.659191436767578, 1, 0, 0
0.5, 1.57104217529297, -0.00210959240794182, 1, 0, 0
0.5, -0.266186542510986, -0.0573971796035767, 1, 0, 0
-0.5, -0.0419701385498047, -0.282271308898926, -1, 0, 0
-0.5, -1.11109260559082, 1.36612487792969, -1, 0, 0
-0.191155567169189, -2, -0.644952239990234, 0, -1, 0
-0.31565034866333, -2, 1.27036148071289, 0, -1, 0
0.0427002620697021, 1.68156021118164, -2, 0, 0, -1
-0.165432395935059, 2, 1.22040382385254, 0, 1, 0
0.175516796112061, -0.486323547363281, -2, 0, 0, -1
-0.5, 0.978307952880859, 0.418455810546875, -1, 0, 0
0.5, 0.759085922241211, -1.24514923095703, 1, 0, 0
-0.5, -0.60097843170166, -1.86774124145508, -1, 0, 0
-0.5, -1.86895233154297, 1.10991249084473, -1, 0, 0
0.470862464904785, 1.99596725463867, 1.26698989868164, 0.27472111582756, 0.961523950099945, 0
-0.5, 0.922800521850586, 1.90694534301758, -1, 0, 0
-0.5, 1.52336273193359, 0.878006134033203, -1, 0, 0
-0.5, 0.257281188964844, -1.31973297119141, -1, 0, 0
-0.5, -1.31234893798828, 0.365106735229492, -1, 0, 0
-0.5, 0.44863468170166, 0.692176742553711, -1, 0, 0
0.0778489446640015, 2, -0.0431867361068726, 0, 1, 0
-0.212224979400635, 2, -0.330707664489746, 0, 1, 0
-0.5, -0.775974884033203, -1.31394973754883, -1, 0, 0
0.399537086486816, -2, 1.87173233032227, 0, -1, 0
0.499312019348145, 0.47941349029541, 1.94299545288086, 0.995893239974976, 0, 0.0905357524752617
-0.5, -1.68643142700195, -1.81573348999023, -1, 0, 0
0.289774227142334, -2, 1.59313354492188, 0, -1, 0
-0.5, -1.83233840942383, -1.92523895263672, -1, 0, 0
-0.5, 0.32583553314209, -1.73749099731445, -1, 0, 0
-0.497246017456055, -0.801493301391602, -1.95793106079102, -0.957826256752014, 0, -0.287347882986069
-0.30935791015625, 2, -0.0348490285873413, 0, 1, 0
-0.5, -0.972625274658203, -0.534923934936523, -1, 0, 0
-0.240844745635986, 1.29810516357422, -2, 0, 0, -1
0.459660339355469, -0.28265739440918, 1.98821716308594, 0.51449579000473, 0, 0.857492983341217
0.5, -1.43911865234375, 0.629809951782227, 1, 0, 0
-0.5, 0.727386474609375, -0.897389907836914, -1, 0, 0
-0.5, -0.242368679046631, -1.08761474609375, -1, 0, 0
0.5, 1.26567359924316, -1.46406448364258, 1, 0, 0
-0.5, 1.16146430969238, 0.481451683044434, -1, 0, 0
-0.229558448791504, -1.46806655883789, 2, 0, 0, 1
0.5, -0.68899658203125, 1.48747695922852, 1, 0, 0
-0.5, -1.82614410400391, 1.80325180053711, -1, 0, 0
-0.5, 0.00317089706659317, 0.206043453216553, -1, 0, 0
-0.5, 0.422615242004395, 0.959027557373047, -1, 0, 0
0.45401050567627, -1.96967361450195, 2, 0, 0, 1
-0.170822677612305, 1.18132934570313, 2, 0, 0, 1
0.149028425216675, -2, 0.611423492431641, 0, -1, 0
0.166951007843018, -2, -1.16128356933594, 0, -1, 0
-0.257915859222412, -2, -1.15754013061523, 0, -1, 0
0.354381332397461, 2, -1.01351753234863, 0, 1, 0
-0.5, 1.90148818969727, -1.63025833129883, -1, 0, 0
-0.5, -1.42201385498047, -0.61983528137207, -1, 0, 0
0.5, -0.950898971557617, 0.293612670898438, 1, 0, 0
-0.439247741699219, -1.99184814453125, -0.539914360046387, -0.303943812847137, -0.952690005302429, 0
0.5, -0.930452728271484, -1.35996551513672, 1, 0, 0
0.5, 1.84924362182617, 0.421155166625977, 1, 0, 0
-0.5, -1.500888671875, 1.17848342895508, -1, 0, 0
0.000616449639201164, -2, -0.726184616088867, 0, -1, 0
0.5, 1.74155578613281, 1.47891052246094, 1, 0, 0
-0.5, -0.618965644836426, -0.654897689819336, -1, 0, 0
0.5, 0.0269888186454773, 0.00123083971440792, 1, 0, 0
0.5, -0.158784656524658, -1.12869117736816, 1, 0, 0
0.5, 0.769844284057617, -0.265041103363037, 1, 0, 0
-0.5, 1.44291198730469, 0.296312618255615, -1, 0, 0
0.392390060424805, 0.259278297424316, -1.99748413085938, 0.0766965001821518, 0, -0.997054517269135
-0.5, 1.1017325592041, 1.26440406799316, -1, 0, 0
0.5, 1.04891006469727, 0.369837379455566, 1, 0, 0
-0.5, -1.43870788574219, -0.228341941833496, -1, 0, 0
-0.5, -0.677966918945312, 0.779399795532227, -1, 0, 0
-0.240151958465576, 2, 1.67561416625977, 0, 1, 0
0.5, -1.55866790771484, 0.0288893055915833, 1, 0, 0
-0.5, 0.1234801197052, -0.0176168286800385, -1, 0, 0
0.5, -1.04657272338867, 1.36015319824219, 1, 0, 0
-0.256318187713623, -1.87153564453125, 2, 0, 0, 1
0.239821529388428, 1.24299034118652, -2, 0, 0, -1
-0.5, 1.68468032836914, 1.92702941894531, -1, 0, 0
-0.042821831703186, 0.363603706359863, 2, 0, 0, 1
0.5, 1.656083984375, -0.334797515869141, 1, 0, 0
-0.1582310962677, 2, 0.292452011108398, 0, 1, 0
0.5, -1.81879440307617, 1.27129592895508, 1, 0, 0
-0.5, 1.28031829833984, 1.76156188964844, -1, 0, 0
0.5, 1.87898529052734, 0.234777221679688, 1, 0, 0
0.5, -1.61063415527344, -1.63540161132813, 1, 0, 0
-0.5, 1.92804000854492, 0.921998901367188, -1, 0, 0
0.5, -1.89405319213867, -0.664697189331055, 1, 0, 0
-0.5, -0.469909248352051, 1.80986755371094, -1, 0, 0
-0.5, -0.418572425842285, 0.388230247497559, -1, 0, 0
0.5, -0.961436996459961, -1.03831703186035, 1, 0, 0
-0.5, 0.211316986083984, 1.76701599121094, -1, 0, 0
-0.5, 0.499022369384766, 0.464493980407715, -1, 0, 0
-0.5, 0.600955810546875, 1.79591415405273, -1, 0, 0
0.5, -1.55728363037109, -0.534005851745605, 1, 0, 0
-0.5, 0.805984497070312, 0.650372619628906, -1, 0, 0
0.241721076965332, -2, 0.698303375244141, 0, -1, 0
-0.109440536499023, -2, 1.28118148803711, 0, -1, 0
-0.5, -1.16991584777832, -0.537094612121582, -1, 0, 0
-0.5, -0.652622909545898, 1.08523887634277, -1, 0, 0
0.343976936340332, 2, 1.18238464355469, 0, 1, 0
-0.5, -0.415785789489746, 1.06920471191406, -1, 0, 0
-0.5, 0.620640296936035, 0.925691833496094, -1, 0, 0
0.5, 0.142684755325317, 0.5087841796875, 1, 0, 0
-0.5, -0.0830046081542969, 1.64265029907227, -1, 0, 0
-0.5, -0.450904579162598, -1.81135437011719, -1, 0, 0
-0.5, -0.935058898925781, -0.717632141113281, -1, 0, 0
-0.5, 0.668409957885742, 0.550406684875488, -1, 0, 0
0.425673217773438, 2, -0.0503361129760742, 0, 1, 0
0.5, -0.066543083190918, 1.86417785644531, 1, 0, 0
0.5, 1.40592971801758, -0.986763687133789, 1, 0, 0
0.349663009643555, 1.26230667114258, -2, 0, 0, -1
-0.0305609130859375, -0.96470100402832, -2, 0, 0, -1
0.5, 0.849696426391602, -1.52637985229492, 1, 0, 0
-0.5, -1.32445297241211, -0.56348934173584, -1, 0, 0
0.176368160247803, 2, 0.0533768463134766, 0, 1, 0
0.5, -1.09677886962891, 0.959218902587891, 1, 0, 0
-0.158758573532104, -2, 0.311316146850586, 0, -1, 0
-0.277733116149902, 1.87863372802734, -2, 0, 0, -1
-0.5, 0.511706237792969, 1.17591888427734, -1, 0, 0
-0.5, 1.64178634643555, 0.776442489624023, -1, 0, 0
0.105757160186768, 0.0468757915496826, 2, 0, 0, 1
0.5, 1.04807495117187, -0.961567611694336, 1, 0, 0
0.5, 0.0541491746902466, 1.24674781799316, 1, 0, 0
0.5, -1.43223434448242, 1.79482131958008, 1, 0, 0
-0.5, 1.14743225097656, -0.306633853912354, -1, 0, 0
-0.5, -0.48507568359375, 0.625753784179688, -1, 0, 0
0.5, -1.8849658203125, 0.298946552276611, 1, 0, 0
0.276349124908447, 0.545968856811523, -2, 0, 0, -1
0.487693901062012, -1.15149559020996, -1.9933073425293, 0.70710676908493, 0, -0.70710676908493
0.5, 0.776179809570313, -0.110102062225342, 1, 0, 0
-0.5, -0.278866424560547, 0.391488342285156, -1, 0, 0
-0.5, 0.833205947875977, -1.51536117553711, -1, 0, 0
-0.5, 1.41207321166992, 1.00144752502441, -1, 0, 0
-0.5, -1.80065078735352, 1.32068725585937, -1, 0, 0
-0.0203209090232849, -0.254839744567871, 2, 0, 0, 1
0.288779907226562, -2, 1.30466232299805, 0, -1, 0
-0.269713249206543, 2, 1.35928131103516, 0, 1, 0
0.5, -0.206250057220459, 1.26590522766113, 1, 0, 0
-0.0439654970169067, -1.96883483886719, 1.99001083374023, 0, -0.31622776389122, 0.948683261871338
0.5, -0.559567832946777, 0.611342353820801, 1, 0, 0
0.5, -1.26679481506348, -0.0389232969284058, 1, 0, 0
0.5, -1.28151931762695, 0.986371841430664, 1, 0, 0
-0.0467128753662109, -2, 0.249116191864014, 0, -1, 0
0.5, -0.833631134033203, -0.856442489624023, 1, 0, 0
-0.5, 1.20143569946289, 0.0466669511795044, -1, 0, 0
-0.207226905822754, -2, 0.688424911499023, 0, -1, 0
0.5, -1.03359718322754, -0.31222339630127, 1, 0, 0
-0.496569137573242, -1.94313186645508, -1.6241259765625, -0.948683261871338, -0.31622776389122, 0
-0.246129493713379, -0.729772415161133, -2, 0, 0, -1
0.472294044494629, -1.7850749206543, -2, 0, 0, -1
-0.5, 0.478405647277832, -1.47323165893555, -1, 0, 0
-0.5, 0.469753952026367, -1.73866058349609, -1, 0, 0
-0.5, -0.228105850219727, 1.88549255371094, -1, 0, 0
-0.369183158874512, -2, -1.14418518066406, 0, -1, 0
0.5, 1.75816696166992, 0.770837249755859, 1, 0, 0
0.5, -1.09760185241699, -0.552502975463867, 1, 0, 0
0.5, 0.395643615722656, -0.327928085327148, 1, 0, 0
0.114777841567993, 1.85862716674805, 2, 0, 0, 1
0.183785305023193, 2, 0.39394287109375, 0, 1, 0
-0.5, -1.82403732299805, 0.557932319641113, -1, 0, 0
0.5, 0.748619842529297, 1.21040916442871, 1, 0, 0
0.5, 0.14537278175354, 1.02891151428223, 1, 0, 0
0.5, 1.32482315063477, -1.36327987670898, 1, 0, 0
-0.5, -0.682371139526367, -1.11553268432617, -1, 0, 0
-0.100774269104004, 1.29510925292969, 2, 0, 0, 1
0.167560501098633, -1.11343368530273, -2, 0, 0, -1
-0.132947387695313, 1.52068161010742, -2, 0, 0, -1
-0.5, 1.46696701049805, -0.531761169433594, -1, 0, 0
0.5, -1.1494571685791, 0.390810508728027, 1, 0, 0
0.5, 0.466458740234375, -0.736365127563477, 1, 0, 0
-0.5, 0.413848609924316, 1.45918807983398, -1, 0, 0
0.5, -1.31073089599609, 0.604249496459961, 1, 0, 0
-0.234910354614258, 2, 0.648742599487305, 0, 1, 0
0.5, -0.6389794921875, 1.26598861694336, 1, 0, 0
-0.5, -0.230282669067383, 0.969516067504883, -1, 0, 0
0.245769653320313, 2, 1.5451789855957, 0, 1, 0
-0.5, -1.1322257232666, -0.874711685180664, -1, 0, 0
-0.338723678588867, 2, 1.18596733093262, 0, 1, 0
-0.489814147949219, 1.16379936218262, 1.96504165649414, -0.948683261871338, 0, 0.31622776389122
0.5, 0.255908451080322, -0.34345344543457, 1, 0, 0
0.5, 0.937538909912109, 0.0927543449401855, 1, 0, 0
0.5, -0.956916656494141, -0.437548141479492, 1, 0, 0
0.5, 1.4818424987793, -1.3505778503418, 1, 0, 0
0.470325965881348, 0.241054134368896, 2, 0, 0, 1
0.5, 1.43309417724609, 1.6553955078125, 1, 0, 0
-0.5, -1.56252883911133, -1.41167510986328, -1, 0, 0
-0.0436072587966919, 2, 0.39044116973877, 0, 1, 0
-0.5, 0.179353885650635, 0.0536334609985352, -1, 0, 0
-0.405359954833984, 1.07106842041016, -2, 0, 0, -1
0.369733619689941, 0.966999206542969, 2, 0, 0, 1
0.280708847045898, 2, -1.15264305114746, 0, 1, 0
-0.5, 0.031934871673584, -1.35437149047852, -1, 0, 0
-0.157753238677979, -2, -1.20830665588379, 0, -1, 0
-0.5, -0.433794975280762, -1.65212295532227, -1, 0, 0
0.5, 1.54380920410156, -1.15576133728027, 1, 0, 0
-0.5, -1.19922218322754, -0.659990768432617, -1, 0, 0
-0.499797973632813, 1.17234893798828, -1.96718872070313, -0.997919917106628, 0, -0.0644657611846924
-0.5, 0.604143676757813, -0.147188663482666, -1, 0, 0
-0.5, -0.523203926086426, 0.32899055480957, -1, 0, 0
-0.5, 1.27418762207031, 0.410406723022461, -1, 0, 0
-0.5, 0.562818107604981, -1.8390315246582, -1, 0, 0
-0.5, 1.1244734954834, -1.77919219970703, -1, 0, 0
-0.5, 0.333223266601562, 1.01083557128906, -1, 0, 0
-0.5, 0.0692729711532593, -0.949819030761719, -1, 0, 0
-0.5, 0.637333374023437, -1.86674926757812, -1, 0, 0
-0.5, -1.7059977722168, -1.43623229980469, -1, 0, 0
-0.5, -1.28104034423828, -0.516839408874512, -1, 0, 0
0.5, 1.95030410766602, -1.82155990600586, 1, 0, 0
0.0350467681884766, 1.26598609924316, -2, 0, 0, -1
-0.180639324188232, 2, -1.33271606445313, 0, 1, 0
0.0748720121383667, 2, 0.677565994262695, 0, 1, 0
0.0393404364585876, 1.88390228271484, -2, 0, 0, -1
0.5, 1.92523345947266, -0.910607986450195, 1, 0, 0
-0.0347665596008301, 2, -1.5170231628418, 0, 1, 0
0.5, -1.10872055053711, -0.0974139213562012, 1, 0, 0
-0.27902364730835, 1.98280395507813, -1.98961853027344, 0, 0.447213590145111, -0.894427180290222
0.321523513793945, -2, 0.856251983642578, 0, -1, 0
-0.5, -1.55487319946289, -0.235079498291016, -1, 0, 0
-0.217401905059814, 2, -1.62500015258789, 0, 1, 0
-0.207859497070313, 0.0652303695678711, -2, 0, 0, -1
-0.254606323242188, 2, -1.28664443969727, 0, 1, 0
-0.5, -0.58273136138916, -0.160884170532227, -1, 0, 0
-0.5, 1.35284042358398, -1.73002960205078, -1, 0, 0
0.5, -0.0286364269256592, -1.86791595458984, 1, 0, 0
-0.13855580329895, -2, 0.0205962562561035, 0, -1, 0
-0.5, -0.863267517089844, -0.414325904846191, -1, 0, 0
-0.5, 1.26937973022461, -0.264486045837402, -1, 0, 0
-0.0631919097900391, 1.89524215698242, -2, 0, 0, -1
0.0430328798294067, 1.24364318847656, 2, 0, 0, 1
-0.5, 0.582038154602051, -1.56497253417969, -1, 0, 0
-0.5, 1.56536773681641, 0.00669270932674408, -1, 0, 0
0.153208894729614, 2, 0.283189163208008, 0, 1, 0
0.125526676177979, -0.946164779663086, 2, 0, 0, 1
-0.5, 1.58231964111328, -0.316089534759522, -1, 0, 0
-0.5, 1.36143264770508, -0.588275489807129, -1, 0, 0
-0.5, 0.660433120727539, 1.1677938079834, -1, 0, 0
-0.5, -0.449819641113281, -0.286351718902588, -1, 0, 0
-0.498920021057129, -0.556102142333984, -1.96745346069336, -0.923879504203796, 0, -0.382683455944061
0.5, 1.05812484741211, -1.3725553894043, 1, 0, 0
0.5, 0.0413612222671509, -0.429917602539063, 1, 0, 0
-0.5, 0.833941268920898, 0.894924545288086, -1, 0, 0
0.191814651489258, 1.42071533203125, -2, 0, 0, -1
-0.357613105773926, -2, 0.541017303466797, 0, -1, 0
0.5, -1.74245239257813, 0.341106185913086, 1, 0, 0
0.124956436157227, -1.9529655456543, -2, 0, 0, -1
-0.5, -0.335872802734375, -0.443137664794922, -1, 0, 0
0.391127052307129, 1.16396293640137, -2, 0, 0, -1
0.195541095733643, -1.17182502746582, 2, 0, 0, 1
-0.497887229919434, -1.97523742675781, -1.33201431274414, -0.70710676908493, -0.70710676908493, 0
0.441726570129395, -1.40401763916016, -1.99919006347656, 0.196116134524345, 0, -0.980580687522888
0.358991317749023, 2, -0.291864547729492, 0, 1, 0
0.5, 1.71300888061523, 0.587430915832519, 1, 0, 0
-0.0554757070541382, -1.22966278076172, -2, 0, 0, -1
0.0652713489532471, -1.14801742553711, -2, 0, 0, -1
0.249079132080078, 0.744949111938477, -2, 0, 0, -1
0.295238361358643, -0.229859046936035, 2, 0, 0, 1
-0.0180781877040863, -2, -0.60506664276123, 0, -1, 0
0.5, -1.25642478942871, -0.931500778198242, 1, 0, 0
0.5, -0.638419456481934, 1.91389404296875, 1, 0, 0
0.5, -0.365656547546387, -1.35297592163086, 1, 0, 0
-0.5, 1.5227766418457, 0.19986307144165, -1, 0, 0
-0.5, -1.31172744750977, 1.16306213378906, -1, 0, 0
0.353339729309082, 1.99292922973633, -1.97610733032227, 0, 0.894427180290222, -0.447213590145111
0.5, 1.19918067932129, -0.431446723937988, 1, 0, 0
0.5, 1.85879455566406, -1.43298095703125, 1, 0, 0
0.157540063858032, 0.654915542602539, -2, 0, 0, -1
0.5, -0.974324035644531, 1.64569351196289, 1, 0, 0
-0.0407723760604858, -2, -1.9168522644043, 0, -1, 0
-0.5, 0.328291320800781, -1.63889541625977, -1, 0, 0
-0.5, 1.56462814331055, -1.03651382446289, -1, 0, 0
0.5, -1.61949920654297, -1.74754470825195, 1, 0, 0
-0.5, -0.853731918334961, 1.38820175170898, -1, 0, 0
0.5, -1.86408325195312, 0.0762986516952515, 1, 0, 0
0.5, -1.48367401123047, -1.48219451904297, 1, 0, 0
-0.494121856689453, -1.94127471923828, 1.57080200195313, -0.948683261871338, -0.31622776389122, 0
0.5, -1.39770126342773, 0.476120300292969, 1, 0, 0
0.5, -1.13587043762207, -1.40819763183594, 1, 0, 0
0.5, 0.12979154586792, 0.677228546142578, 1, 0, 0
-0.180908832550049, -1.24575233459473, -2, 0, 0, -1
0.5, 0.911778869628906, -1.71061813354492, 1, 0, 0
0.412723007202148, -1.87139358520508, 2, 0, 0, 1
0.5, -0.452899971008301, -0.350545310974121, 1, 0, 0
-0.5, 1.44474670410156, 1.85453796386719, -1, 0, 0
-0.5, -0.40397777557373, 1.38137756347656, -1, 0, 0
0.5, 0.290915184020996, 1.44629135131836, 1, 0, 0
-0.181747283935547, 2, -1.9237223815918, 0, 1, 0
0.240170440673828, 2, 1.89049255371094, 0, 1, 0
-0.5, 0.273254947662354, -1.1471208190918, -1, 0, 0
-0.5, -1.36848190307617, -1.24686706542969, -1, 0, 0
-0.354726982116699, -1.45600479125977, -2, 0, 0, -1
0.5, 1.36552459716797, -0.525552139282227, 1, 0, 0
-0.496748275756836, -1.9618669128418, 1.39601303100586, -0.952319800853729, -0.305101603269577, 0
0.5, -0.34801025390625, -1.011826171875, 1, 0, 0
0.378825988769531, 2, 1.55039337158203, 0, 1, 0
0.5, -1.32375686645508, 1.15380340576172, 1, 0, 0
-0.5, 1.27030364990234, -0.363820304870605, -1, 0, 0
0.5, -0.60253246307373, -0.83900993347168, 1, 0, 0
-0.5, -1.4021842956543, 0.243108158111572, -1, 0, 0
-0.237026977539063, -1.35912857055664, 2, 0, 0, 1
-0.326372299194336, -2, 0.191295528411865, 0, -1, 0
0.470824661254883, -1.98853240966797, -1.91806457519531, 0.554700195789337, -0.832050323486328, 0
0.5, -1.22279403686523, 0.691822967529297, 1, 0, 0
0.0506414651870728, -1.1878556060791, 2, 0, 0, 1
0.5, -1.42277633666992, 0.906644744873047, 1, 0, 0
0.0690439605712891, 0.648113327026367, 2, 0, 0, 1
-0.5, -1.66923812866211, 0.493324890136719, -1, 0, 0
0.5, 1.02892524719238, 0.621958351135254, 1, 0, 0
0.5, -1.89585556030273, -1.27112953186035, 1, 0, 0
-0.397684288024902, 0.669759063720703, -2, 0, 0, -1
0.5, -0.0535331201553345, -1.61305252075195, 1, 0, 0
-0.5, 0.463854370117187, 0.356658821105957, -1, 0, 0
0.5, 1.84504928588867, -1.94880874633789, 1, 0, 0
0.5, 1.13933906555176, 1.88314727783203, 1, 0, 0
-0.5, -1.48094940185547, 0.0994340133666992, -1, 0, 0
0.5, 1.83499755859375, -1.74792556762695, 1, 0, 0
-0.5, 1.37589920043945, -1.81759048461914, -1, 0, 0
0.248628463745117, 2, 1.64535980224609, 0, 1, 0
-0.45719596862793, 1.8018342590332, 1.99356399536133, -0.164398983120918, 0, 0.986393868923187
-0.5, -0.0256372690200806, -0.625505485534668, -1, 0, 0
-0.455162658691406, -0.488727149963379, -2, 0, 0, -1
-0.5, -1.69939208984375, 1.531796875, -1, 0, 0
0.5, 0.174534320831299, 0.855083618164063, 1, 0, 0
0.5, -1.86292556762695, 1.74879013061523, 1, 0, 0
0.5, -1.42747573852539, -0.00399480193853378, 1, 0, 0
0.5, -0.0177904427051544, -0.803288116455078, 1, 0, 0
0.5, 0.357532691955566, -0.423516807556152, 1, 0, 0
-0.5, 1.78907409667969, 0.816005859375, -1, 0, 0
0.166338043212891, 1.24030212402344, -2, 0, 0, -1
0.487987365722656, -1.562060546875, -1.9908056640625, 0.643031537532806, 0, -0.765839636325836
0.5, 1.78329879760742, 1.25797180175781, 1, 0, 0
-0.0515701341629028, 0.783856353759766, -2, 0, 0, -1
-0.5, -0.969728393554688, 1.67703826904297, -1, 0, 0
0.204220905303955, -0.380473518371582, -2, 0, 0, -1
0.5, -1.16163597106934, 0.722783966064453, 1, 0, 0
0.0773035717010498, -2, 0.20705005645752, 0, -1, 0
0.5, -0.321184234619141, -0.231595840454102, 1, 0, 0
-0.5, 1.61255416870117, -0.600544281005859, -1, 0, 0
-0.185613098144531, -2, -1.83853378295898, 0, -1, 0
0.5, 1.43061111450195, 0.59747386932373, 1, 0, 0
0.344789161682129, 2, 0.564769439697266, 0, 1, 0
-0.5, 1.51937164306641, 0.738054962158203, -1, 0, 0
-0.5, -1.26014656066895, 1.06115333557129, -1, 0, 0
0.5, 1.69338760375977, 0.0529386425018311, 1, 0, 0
-0.5, 1.71427169799805, -0.335177536010742, -1, 0, 0
0.419102096557617, 1.99912536621094, -1.221240234375, 0.0995037257671356, 0.995037198066711, 0
0.144505815505981, 0.838987503051758, -2, 0, 0, -1
0.5, 0.329344215393066, -0.599314498901367, 1, 0, 0
0.0658801507949829, 2, -0.236735248565674, 0, 1, 0
-0.0546671199798584, 2, -1.85056335449219, 0, 1, 0
0.5, 0.103198680877686, 1.3996598815918, 1, 0, 0
0.5, 0.566854057312012, 1.19622970581055, 1, 0, 0
-0.5, 1.1874715423584, -0.898885192871094, -1, 0, 0
0.5, 0.918527755737305, -1.55021911621094, 1, 0, 0
0.5, 1.54524780273438, 1.48699890136719, 1, 0, 0
-0.5, -0.110291624069214, 1.16261299133301, -1, 0, 0
0.5, -1.61982223510742, -0.0954677486419678, 1, 0, 0
0.5, 0.366169815063477, 1.5141015625, 1, 0, 0
-0.0405577754974365, -2, 1.17649475097656, 0, -1, 0
0.5, 1.95544097900391, 0.158286895751953, 1, 0, 0
0.320854721069336, 1.0928092956543, 2, 0, 0, 1
0.370656776428223, 2, -1.72619827270508, 0, 1, 0
-0.5, -0.266431064605713, 1.49332656860352, -1, 0, 0
0.497446937561035, -1.92592010498047, -0.852157211303711, 0.993883669376373, -0.110431522130966, 0
0.0467296123504639, 0.916775283813477, -2, 0, 0, -1
0.382628936767578, 1.33540222167969, 2, 0, 0, 1
-0.0354474568367004, -0.87705322265625, -2, 0, 0, -1
0.5, -1.49053237915039, -0.216248474121094, 1, 0, 0
0.5, -0.650003128051758, -1.43743255615234, 1, 0, 0
-0.333616714477539, 2, -0.216247825622559, 0, 1, 0
0.5, 0.55736759185791, -0.278744144439697, 1, 0, 0
-0.5, 0.438727416992188, 1.63302734375, -1, 0, 0
-0.5, -0.305232219696045, 0.0415310144424439, -1, 0, 0
-0.5, -1.05605087280273, -1.37245147705078, -1, 0, 0
-0.0101649868488312, -2, -0.30671459197998, 0, -1, 0
-0.122491865158081, 2, -0.519536819458008, 0, 1, 0
0.0476211595535278, 1.14903076171875, 2, 0, 0, 1
-0.5, -0.152499141693115, -1.5373210144043, -1, 0, 0
-0.5, 0.711164245605469, -0.320625038146973, -1, 0, 0
-0.5, -1.66019409179687, -0.508939018249512, -1, 0, 0
-0.5, 0.786752471923828, -1.5622119140625, -1, 0, 0
-0.5, -1.05622138977051, -1.69341674804688, -1, 0, 0
0.5, 1.76609512329102, -1.3268879699707, 1, 0, 0
-0.5, 0.95642333984375, -1.35510009765625, -1, 0, 0
-0.157103633880615, 2, -1.20283782958984, 0, 1, 0
-0.5, 1.40007431030273, 1.58944763183594, -1, 0, 0
-0.112293739318848, -0.0777810668945313, 2, 0, 0, 1
0.5, 1.70516952514648, -0.0304472351074219, 1, 0, 0
-0.5, 0.509057159423828, -1.12825775146484, -1, 0, 0
0.5, -1.8368684387207, -1.84385528564453, 1, 0, 0
0.170774440765381, 2, 0.180505695343018, 0, 1, 0
0.185125312805176, 0.525430030822754, 2, 0, 0, 1
-0.0996367359161377, 2, -1.70662246704102, 0, 1, 0
-0.477502555847168, 2, 0.0402061653137207, 0, 1, 0
0.5, -1.70326629638672, 1.83895126342773, 1, 0, 0
-0.5, -1.47144180297852, -1.39295516967773, -1, 0, 0
0.5, 1.24180229187012, -0.601877784729004, 1, 0, 0
-0.0655670022964478, -0.906252975463867, 2, 0, 0, 1
-0.5, 0.18229663848877, -1.73963516235352, -1, 0, 0
-0.5, 0.35625904083252, -0.220657176971436, -1, 0, 0
-0.122279939651489, -2, -0.848249664306641, 0, -1, 0
-0.5, 0.348621711730957, 0.476779327392578, -1, 0, 0
0.5, -1.83553421020508, 0.564434661865234, 1, 0, 0
0.175219249725342, 2, 0.480873336791992, 0, 1, 0
0.5, 1.47518585205078, -0.947180557250977, 1, 0, 0
-0.5, 0.0538375663757324, 1.910283203125, -1, 0, 0
0.499666481018066, -1.98722274780273, -0.531318778991699, 0.894427180290222, -0.447213590145111, 0
0.5, -0.791236190795898, 1.61047927856445, 1, 0, 0
-0.264808521270752, 1.79263153076172, -2, 0, 0, -1
0.5, -1.61038360595703, -1.49863555908203, 1, 0, 0
0.411436958312988, 2, 0.538005180358887, 0, 1, 0
-0.0397890853881836, -2, 0.385266609191895, 0, -1, 0
0.5, -0.0586327505111694, 0.391115570068359, 1, 0, 0
-0.5, 0.126463556289673, 1.64275787353516, -1, 0, 0
-0.00389626979827881, -1.04635627746582, 2, 0, 0, 1
0.373558731079102, -2, 1.38422546386719, 0, -1, 0
0.5, 1.94100524902344, 1.19013671875, 1, 0, 0
-0.5, 0.0545220851898193, -0.584970016479492, -1, 0, 0
-0.151940660476685, 0.920148086547852, -2, 0, 0, -1
0.5, -1.66073669433594, 0.169778995513916, 1, 0, 0
0.5, 1.29823913574219, -1.87609436035156, 1, 0, 0
0.461595344543457, -1.99011810302734, -0.306235046386719, 0.371390670537949, -0.928476691246033, 0
0.279614162445068, -2, -0.441348342895508, 0, -1, 0
-0.5, -1.23894752502441, 1.45187866210938, -1, 0, 0
0.5, -0.186284694671631, 0.025051212310791, 1, 0, 0
0.5, -1.36102951049805, -0.737864074707031, 1, 0, 0
0.5, 0.382929000854492, -0.881594543457031, 1, 0, 0
0.483679313659668, -1.96825805664063, 0.780232467651367, 0.894427180290222, -0.447213590145111, 0
0.5, -1.85750930786133, -0.410975875854492, 1, 0, 0
-0.5, 0.256671962738037, 0.880254440307617, -1, 0, 0
-0.295620670318604, -2, 1.94599349975586, 0, -1, 0
0.5, 0.271000595092773, 0.177115020751953, 1, 0, 0
-0.363406829833984, 1.25567604064941, 2, 0, 0, 1
0.5, -0.121963520050049, 0.851452178955078, 1, 0, 0
0.5, 0.334594917297363, 1.57444900512695, 1, 0, 0
0.147661046981812, -2, 0.139912853240967, 0, -1, 0
-0.385400276184082, -2, 1.81788848876953, 0, -1, 0
0.5, -0.369679794311523, 0.773004150390625, 1, 0, 0
0.5, 0.2043434715271, 1.55308303833008, 1, 0, 0
-0.5, 0.47944881439209, 0.171480598449707, -1, 0, 0
-0.5, -0.53654167175293, -0.312177581787109, -1, 0, 0
-0.137220067977905, 1.17044250488281, -2, 0, 0, -1
-0.5, -1.38510040283203, -0.42906005859375, -1, 0, 0
0.161695232391357, 1.2404434967041, 2, 0, 0, 1
0.0563480949401855, 2, 1.611748046875, 0, 1, 0
-0.499090690612793, 1.94939834594727, 0.568418235778809, -0.992277860641479, 0.124034732580185, 0
0.5, -1.66585815429688, 1.10436958312988, 1, 0, 0
-0.5, 0.789216918945313, -0.448901405334473, -1, 0, 0
0.414289779663086, -0.628307228088379, 2, 0, 0, 1
-0.499372100830078, 1.97549621582031, 1.5964892578125, -0.948683261871338, 0.31622776389122, 0
-0.5, -0.318269271850586, -0.576497192382812, -1, 0, 0
-0.149212121963501, -0.747412109375, 2, 0, 0, 1
-0.5, -1.35660629272461, 0.43395336151123, -1, 0, 0
-0.5, 0.0598406982421875, -1.83627243041992, -1, 0, 0
0.30351411819458, 0.0992622375488281, 2, 0, 0, 1
-0.228629913330078, -1.8041423034668, -2, 0, 0, -1
-0.5, 1.91826766967773, 0.297412738800049, -1, 0, 0
-0.212674827575684, 0.351346893310547, -2, 0, 0, -1
0.5, -1.6817431640625, -1.29704544067383, 1, 0, 0
0.0851773166656494, -2, 0.546926574707031, 0, -1, 0
0.156553010940552, -0.587687377929688, 2, 0, 0, 1
0.5, 1.1834880065918, 0.137519702911377, 1, 0, 0
-0.304590015411377, 1.53857955932617, 2, 0, 0, 1
-0.5, -1.52971435546875, 1.01047836303711, -1, 0, 0
-0.5, -1.83927108764648, 0.997167053222656, -1, 0, 0
-0.5, -0.877713775634766, -0.966812591552734, -1, 0, 0
-0.297141723632812, -1.96076629638672, 2, 0, 0, 1
0.0849001884460449, 0.555651016235352, 2, 0, 0, 1
0.5, 0.572303657531738, -0.739684829711914, 1, 0, 0
0.5, -0.585205993652344, -1.33209701538086, 1, 0, 0
-0.499547882080078, -1.8205403137207, -1.97989440917969, -0.957790374755859, 0, -0.287467509508133
-0.5, 1.05943565368652, -0.225465183258057, -1, 0, 0
0.5, 1.54015167236328, 0.722393341064453, 1, 0, 0
0.5, 0.473244590759277, -1.31896591186523, 1, 0, 0
0.5, 0.344409790039063, 0.57941822052002, 1, 0, 0
0.5, 1.84585845947266, 1.05800918579102, 1, 0, 0
0.5, -1.01834999084473, -0.818863296508789, 1, 0, 0
-0.337429237365723, -1.0599365234375, 2, 0, 0, 1
-0.5, 0.513188285827637, -0.50180103302002, -1, 0, 0
0.107673864364624, -2, -1.71573532104492, 0, -1, 0
0.5, -1.45183654785156, -0.334397315979004, 1, 0, 0
0.5, 1.36638366699219, 0.207254905700684, 1, 0, 0
-0.5, 1.60261505126953, 1.61934509277344, -1, 0, 0
-0.5, -1.57206405639648, 1.45891342163086, -1, 0, 0
0.5, 0.650729522705078, 1.76436630249023, 1, 0, 0
-0.233278999328613, -1.62026214599609, -2, 0, 0, -1
-0.5, 1.84188613891602, 0.198063297271729, -1, 0, 0
-0.5, -1.60496017456055, -0.290995960235596, -1, 0, 0
0.5, 1.13805503845215, 0.425941619873047, 1, 0, 0
0.5, -1.50796112060547, 0.651539840698242, 1, 0, 0
0.5, 1.87251358032227, -0.705122451782227, 1, 0, 0
-0.5, -0.736171798706055, -0.741160049438477, -1, 0, 0
0.5, 0.130757246017456, -1.29950073242188, 1, 0, 0
0.5, -0.355225563049316, -0.137664794921875, 1, 0, 0
0.5, 0.0886905956268311, -0.576995811462402, 1, 0, 0
0.377916564941406, 0.830524597167969, 2, 0, 0, 1
0.307687644958496, 2, 0.285213756561279, 0, 1, 0
0.373870468139648, 1.67881134033203, -2, 0, 0, -1
0.5, 0.345629920959473, 0.371449165344238, 1, 0, 0
0.5, 0.180254859924316, -1.13921211242676, 1, 0, 0
-0.5, -1.93952545166016, -1.04007194519043, -1, 0, 0
0.5, -1.14882858276367, 1.19947975158691, 1, 0, 0
-0.5, 1.41654739379883, -1.4777717590332, -1, 0, 0
0.5, 1.53345703125, -1.85984985351562, 1, 0, 0
0.288189487457275, 2, -0.523771095275879, 0, 1, 0
-0.5, 0.660867919921875, -1.1621614074707, -1, 0, 0
-0.5, 0.386004943847656, 0.792846374511719, -1, 0, 0
0.470958480834961, 1.99078231811523, 1.9012239074707, 0.164398983120918, 0.986393868923187, 0
-0.5, -0.301482124328613, 1.29904083251953, -1, 0, 0
0.5, 0.0677333974838257, -0.283172245025635, 1, 0, 0
-0.5, 1.17897621154785, -0.44247444152832, -1, 0, 0
0.193771114349365, 0.959629898071289, -2, 0, 0, -1
0.5, -1.05467384338379, 0.540828552246094, 1, 0, 0
-0.420167121887207, -2, 1.00630859375, 0, -1, 0
-0.5, 1.23426200866699, 0.954786911010742, -1, 0, 0
0.254680957794189, -2, 1.14425033569336, 0, -1, 0
-0.5, -0.509435501098633, 1.14658157348633, -1, 0, 0
-0.19201545715332, 0.796317138671875, 2, 0, 0, 1
0.108528861999512, 1.75455032348633, 2, 0, 0, 1
0.5, 0.01073774933815, 0.800858840942383, 1, 0, 0
-0.148587713241577, -2, -0.941012496948242, 0, -1, 0
0.5, 0.130088396072388, -0.81483024597168, 1, 0, 0
0.10766284942627, 2, 1.49657150268555, 0, 1, 0
-0.497789039611816, -0.503528442382812, 1.97340713500977, -0.894427180290222, 0, 0.447213590145111
-0.5, -1.10908813476562, 1.6449951171875, -1, 0, 0
-0.492715873718262, -1.97004837036133, 1.286025390625, -0.894427180290222, -0.447213590145111, 0
-0.228859539031982, 2, -0.856095962524414, 0, 1, 0
0.5, 1.06955718994141, 1.00670806884766, 1, 0, 0
-0.166213932037354, -2, -1.05483467102051, 0, -1, 0
0.5, -0.0230503845214844, -0.571832695007324, 1, 0, 0
-0.5, 1.34005920410156, 0.269469413757324, -1, 0, 0
0.373647155761719, 1.84079147338867, -2, 0, 0, -1
-0.5, 1.4696142578125, 1.62487564086914, -1, 0, 0
0.366835174560547, -1.06578468322754, 2, 0, 0, 1
-0.0189804577827454, 1.45501312255859, -2, 0, 0, -1
-0.5, 0.998758392333984, -0.942128829956055, -1, 0, 0
0.5, 1.32631958007813, 1.29409820556641, 1, 0, 0
-0.0218857073783875, 2, 1.04370216369629, 0, 1, 0
0.165888614654541, -2, 1.0286922454834, 0, -1, 0
-0.253040142059326, -2, 1.88290786743164, 0, -1, 0
-0.5, 1.18606536865234, 1.14575134277344, -1, 0, 0
0.356512336730957, -2, 0.685299530029297, 0, -1, 0
0.5, -0.122092247009277, -1.65400039672852, 1, 0, 0
0.0551724863052368, 2, -1.49862365722656, 0, 1, 0
-0.337191429138184, 2, 0.173220062255859, 0, 1, 0
-0.5, -1.77956573486328, 1.6344743347168, -1, 0, 0
0.5, 1.02168731689453, 1.76615829467773, 1, 0, 0
0.0674606561660767, 0.0326929092407227, -2, 0, 0, -1
0.0403141260147095, 0.236699314117432, 2, 0, 0, 1
0.0878508949279785, 2, 0.148114137649536, 0, 1, 0
-0.5, -0.518983154296875, 0.954302597045898, -1, 0, 0
-0.5, 1.95610656738281, -0.276761264801025, -1, 0, 0
0.5, -1.869462890625, 1.44321197509766, 1, 0, 0
0.5, -0.40745677947998, 0.141831579208374, 1, 0, 0
0.328500061035156, -2, 1.5260124206543, 0, -1, 0
-0.5, 0.243218898773193, 0.709330978393555, -1, 0, 0
0.0976500225067139, 2, 1.23951637268066, 0, 1, 0
-0.5, 1.50230392456055, -1.66928588867188, -1, 0, 0
-0.5, -1.28774856567383, -0.897504501342773, -1, 0, 0
-0.431874542236328, -1.23061553955078, -2, 0, 0, -1
0.390229339599609, 2, -0.565661125183106, 0, 1, 0
0.5, -0.0333201432228088, 0.267276668548584, 1, 0, 0
0.5, -1.85691528320313, -1.46728210449219, 1, 0, 0
0.5, 0.544302368164063, -1.00666488647461, 1, 0, 0
0.47171012878418, -2, 1.4522119140625, 0, -1, 0
-0.0881172847747803, 0.650405197143555, -2, 0, 0, -1
-8.14342498779297e-05, -1.43703796386719, -2, 0, 0, -1
0.5, 1.23554763793945, 1.90532806396484, 1, 0, 0
0.5, -0.939190673828125, 1.88827194213867, 1, 0, 0
0.465098495483398, 1.99287551879883, -0.82001106262207, 0.242535635828972, 0.970142543315887, 0
-0.2754709815979, -0.778446655273437, 2, 0, 0, 1
-0.313528079986572, -1.10507591247559, -2, 0, 0, -1
0.171213474273682, 1.41550064086914, 2, 0, 0, 1
0.231111755371094, 2, 1.18160446166992, 0, 1, 0
0.494902076721191, -0.20526782989502, -1.96301025390625, 0.989949464797974, 0, -0.141421362757683
0.5, 0.729821014404297, 0.498640937805176, 1, 0, 0
-0.5, 0.453262672424316, 1.17341667175293, -1, 0, 0
-0.5, -1.87205856323242, -1.73731994628906, -1, 0, 0
0.5, 0.371774024963379, 1.884501953125, 1, 0, 0
0.5, 0.456826667785645, -0.857533569335937, 1, 0, 0
-0.441864929199219, 1.9996012878418, -0.698032913208008, -0.196116134524345, 0.980580687522888, 0
0.363686218261719, -2, -1.46024047851563, 0, -1, 0
-0.5, -0.534958686828613, -0.0476723384857178, -1, 0, 0
0.5, -1.50327590942383, 1.55991928100586, 1, 0, 0
-0.5, 0.684445266723633, -1.82170959472656, -1, 0, 0
-0.484085540771484, 2, 1.15674308776855, 0, 1, 0
-0.498092384338379, 1.98014831542969, 1.1882421875, -0.970142543315887, 0.242535635828972, 0
0.5, 0.986584854125977, 1.26081604003906, 1, 0, 0
-0.5, -0.356192474365234, -0.80473518371582, -1, 0, 0
0.5, -0.476274909973145, 1.58609420776367, 1, 0, 0
-0.5, -1.23916725158691, 0.264540767669678, -1, 0, 0
0.314628753662109, -2, 1.06180976867676, 0, -1, 0
0.5, -1.68319961547852, 0.60774242401123, 1, 0, 0
-0.432879333496094, -1.53696090698242, 2, 0, 0, 1
-0.5, -1.43576965332031, 1.62425903320313, -1, 0, 0
-0.407127799987793, -2, 1.48859725952148, 0, -1, 0
0.442932434082031, 2, -1.86187377929688, 0, 1, 0
-0.5, 1.93137802124023, 0.993354110717773, -1, 0, 0
-0.338909606933594, -2, 0.849828109741211, 0, -1, 0
0.055992283821106, -1.2693726348877, 2, 0, 0, 1
0.5, -0.202962760925293, -0.555155029296875, 1, 0, 0
0.5, -1.77546478271484, 0.685081787109375, 1, 0, 0
0.5, -1.1648119354248, -1.03674819946289, 1, 0, 0
0.5, -0.993726196289063, -0.738965225219727, 1, 0, 0
0.5, -0.0494793224334717, -1.47231002807617, 1, 0, 0
-0.0156509590148926, 1.86523666381836, 2, 0, 0, 1
0.5, 0.633521270751953, 0.230976543426514, 1, 0, 0
0.5, -0.266560707092285, -1.19094856262207, 1, 0, 0
-0.5, -1.81182281494141, -0.435588493347168, -1, 0, 0
0.5, 1.38974411010742, 1.39495391845703, 1, 0, 0
0.5, -0.319819068908691, -1.48616592407227, 1, 0, 0
0.5, 1.30208312988281, -1.66156692504883, 1, 0, 0
-0.5, -1.27519462585449, 1.75395141601563, -1, 0, 0
0.25681116104126, -1.34520965576172, 2, 0, 0, 1
-0.191544704437256, 0.665515518188477, -2, 0, 0, -1
-0.371768798828125, 2, 1.08848091125488, 0, 1, 0
-0.14779899597168, 2, -0.0943106746673584, 0, 1, 0
-0.0806642055511475, 2, -0.240039291381836, 0, 1, 0
-0.5, -0.248861789703369, 1.21259521484375, -1, 0, 0
-0.5, -0.779846343994141, 1.57075088500977, -1, 0, 0
-0.293049240112305, -0.0151107537746429, -2, 0, 0, -1
-0.5, -1.24325012207031, 1.88506286621094, -1, 0, 0
-0.240262031555176, 2, 1.86339004516602, 0, 1, 0
-0.5, -1.60860748291016, 0.251724586486816, -1, 0, 0
0.5, -1.09531677246094, -1.12842956542969, 1, 0, 0
0.205787754058838, 0.111270551681519, -2, 0, 0, -1
-0.5, 0.522065315246582, -1.41901290893555, -1, 0, 0
-0.0813443946838379, 1.13998474121094, 2, 0, 0, 1
0.5, -1.86447525024414, 0.821040191650391, 1, 0, 0
-0.5, 0.308238067626953, 1.07907440185547, -1, 0, 0
0.5, -0.532014579772949, -0.912281112670899, 1, 0, 0
0.0479598426818848, -2, -0.141662940979004, 0, -1, 0
0.5, 0.673833541870117, -0.252500610351563, 1, 0, 0
-0.5, -0.958011627197266, 1.16930885314941, -1, 0, 0
0.5, -1.06542045593262, -0.43125415802002, 1, 0, 0
-0.5, -1.23930946350098, -0.802808609008789, -1, 0, 0
0.5, 1.63124420166016, 0.59459888458252, 1, 0, 0
0.0295918083190918, -1.63071014404297, 2, 0, 0, 1
-0.5, -0.420572395324707, 1.66463104248047, -1, 0, 0
0.0844034194946289, -1.54930023193359, 2, 0, 0, 1
0.5, 1.70194107055664, 1.04655876159668, 1, 0, 0
0.5, 1.79886535644531, -1.44610229492187, 1, 0, 0
0.5, -1.24245582580566, -1.23297096252441, 1, 0, 0
-0.5, -1.18630752563477, 0.529412574768066, -1, 0, 0
-0.341654663085938, 0.447107048034668, -2, 0, 0, -1
-0.5, -1.74475219726563, -0.338595809936523, -1, 0, 0
-0.5, 0.567126579284668, 0.874636306762695, -1, 0, 0
0.5, -1.47734924316406, -1.69012023925781, 1, 0, 0
0.0321310806274414, 2, -0.34602954864502, 0, 1, 0
0.5, 1.86626113891602, -0.408908996582031, 1, 0, 0
0.492480049133301, 1.96141006469727, -1.53407562255859, 0.948683261871338, 0.31622776389122, 0
0.5, -0.471078910827637, -0.143913707733154, 1, 0, 0
-0.00452735900878906, 2, -0.809569931030273, 0, 1, 0
0.5, 0.188081550598145, -1.64998413085938, 1, 0, 0
-0.5, 1.43787811279297, -1.53561813354492, -1, 0, 0
-0.5, 0.177365436553955, -0.324666862487793, -1, 0, 0
-0.217119026184082, 2, -1.54905364990234, 0, 1, 0
-0.5, 0.0319112396240234, 0.748889083862305, -1, 0, 0
-0.5, 0.0622005796432495, 0.617281036376953, -1, 0, 0
-0.0181929337978363, 0.353506927490234, -2, 0, 0, -1
-0.5, 1.70279937744141, -0.858408813476563, -1, 0, 0
0.5, 0.0566268825531006, -1.15324951171875, 1, 0, 0
-0.109708232879639, -1.18435661315918, 2, 0, 0, 1
0.5, 0.326711540222168, -0.719496765136719, 1, 0, 0
0.0952907371520996, 2, 0.569845237731934, 0, 1, 0
-0.5, 1.42931655883789, 0.756358337402344, -1, 0, 0
0.0401686859130859, -2, 1.13464324951172, 0, -1, 0
-0.5, 1.4932421875, 1.71323547363281, -1, 0, 0
0.498704566955566, -1.89745697021484, -1.06397300720215, 0.986393868923187, -0.164398983120918, 0
0.155399541854858, -1.23598091125488, 2, 0, 0, 1
0.5, 0.156006650924683, 0.0883739757537842, 1, 0, 0
0.5, 1.07312370300293, -0.525569725036621, 1, 0, 0
0.144114198684692, 2, 1.14464866638184, 0, 1, 0
0.0117090511322021, 2, 1.14833038330078, 0, 1, 0
0.5, -1.42113372802734, -1.31158905029297, 1, 0, 0
0.5, -1.56949111938477, 1.62003799438477, 1, 0, 0
-0.5, 1.73945343017578, -0.537369613647461, -1, 0, 0
-0.5, 0.542793159484863, -1.01039665222168, -1, 0, 0
0.5, 1.02584243774414, -0.419310836791992, 1, 0, 0
-0.5, -0.525527763366699, 1.53928131103516, -1, 0, 0
0.287635097503662, -1.45761840820312, -2, 0, 0, -1
-0.134925184249878, -2, -1.61203018188477, 0, -1, 0
-0.5, -0.651830520629883, 1.14075462341309, -1, 0, 0
-0.071055269241333, 2, -1.14180976867676, 0, 1, 0
-0.5, 1.44885803222656, -1.2717903137207, -1, 0, 0
0.5, -1.30203475952148, -1.15508811950684, 1, 0, 0
-0.5, 1.9128955078125, -0.998537979125977, -1, 0, 0
0.5, 0.0452647733688354, -1.77810684204102, 1, 0, 0
-0.475096130371094, -1.04916358947754, 2, 0, 0, 1
0.17535551071167, 2, -0.7571484375, 0, 1, 0
-0.5, 0.265314331054687, -0.67159049987793, -1, 0, 0
-0.130018548965454, -2, -1.46216979980469, 0, -1, 0
0.5, -1.78391647338867, 1.52700744628906, 1, 0, 0
0.304948463439941, -2, 1.94305267333984, 0, -1, 0
0.5, -1.27655822753906, -0.821351852416992, 1, 0, 0
-0.5, -1.16371063232422, 0.375147094726562, -1, 0, 0
0.0728541326522827, -0.46358325958252, 2, 0, 0, 1
-0.5, -0.46674488067627, 0.0649910354614258, -1, 0, 0
0.23162260055542, 2, -1.22975090026855, 0, 1, 0
-0.5, -0.801932220458984, -0.023028838634491, -1, 0, 0
-0.5, -0.967148056030273, -0.944582672119141, -1, 0, 0
-0.5, -1.37281448364258, -0.0887294006347656, -1, 0, 0
0.265911083221436, 2, 0.975534896850586, 0, 1, 0
-0.5, -1.16741470336914, -1.33960113525391, -1, 0, 0
0.179508304595947, -2, -0.0195011901855469, 0, -1, 0
-0.353126907348633, 2, 1.86726806640625, 0, 1, 0
0.5, -0.465819511413574, -0.00543084025382996, 1, 0, 0
0.5, 1.42539947509766, -1.14905967712402, 1, 0, 0
-0.5, 0.543617134094238, 1.5687158203125, -1, 0, 0
-0.5, -0.218448143005371, -0.0926110458374023, -1, 0, 0
-0.0577955961227417, 0.0299598693847656, -2, 0, 0, -1
-0.402120094299316, -2, -0.673549499511719, 0, -1, 0
0.415946960449219, 2, -0.62584644317627, 0, 1, 0
0.5, 0.820452880859375, -1.19264503479004, 1, 0, 0
-0.5, -0.0506867933273315, -1.80377899169922, -1, 0, 0
-0.5, -1.1718872833252, 0.836023330688477, -1, 0, 0
0.5, 1.86816375732422, -0.350776062011719, 1, 0, 0
0.299079856872559, -2, 0.992979583740234, 0, -1, 0
-0.5, -0.115297603607178, -1.46057022094727, -1, 0, 0
-0.5, -0.739760437011719, -0.0922387886047363, -1, 0, 0
-0.326106491088867, -2, -0.989615325927734, 0, -1, 0
-0.5, -1.25804054260254, 0.430921859741211, -1, 0, 0
0.5, 0.930265350341797, -1.15348739624023, 1, 0, 0
-0.5, -0.970589981079102, -1.0673934173584, -1, 0, 0
-0.5, 1.23497505187988, -0.164338035583496, -1, 0, 0
-0.5, 0.00310967773199081, -1.25094612121582, -1, 0, 0
0.271861667633057, -1.05385620117188, 2, 0, 0, 1
-0.5, 0.284392547607422, 0.247770729064941, -1, 0, 0
0.5, -0.904399719238281, -1.72386596679687, 1, 0, 0
