-0.198113212585449, -1, 0.752121047973633, 0.0105465083259528, -0.999943533704626, -0.00130405691477814
-0.219207420349121, 1, 0.754729309082031, -0.0105465083259528, 0.999943533704626, 0.00130405691477814
0.263946208953857, -1, 0.281955814361572, 0.0194097599965478, -0.999767086489161, -0.00943578241864661
0.225117645263672, 1, 0.300831775665283, -0.0194097599965478, 0.999767086489161, 0.00943578241864661
-0.156193332672119, -0.640604019165039, -1, 0.0255511765445092, -0.00083533633078253, -0.999673166385097
-0.207312393188477, -0.638932800292969, 1, -0.0255511765445092, 0.00083533633078253, 0.999673166385097
0.541227124176222, 0.297128173430143, -0.982574472446767, -0.147516346762176, 0.00401635287844524, -0.989051462941892
0.839295208893019, 0.289012824614225, 1.0158798122212, 0.147516346762176, -0.00401635287844524, 0.989051462941892
0.590676855376366, 1.05483459063759, -0.694030179010142, -0.278536741347461, 0.960404357110241, -0.00638393007496685
1.16908147268594, -0.939524616515733, -0.680773419366588, 0.278536741347461, -0.960404357110241, 0.00638393007496685
-0.960940697958729, 0.0448347139865582, 0.0503260952430679, -0.904964442849461, -0.00930147456922067, 0.425385518969561
1.03617760343287, 0.0653616476566022, -0.888434771875768, 0.904964442849461, 0.00930147456922067, -0.425385518969561
-1.14811518364324, -0.996567202684665, 0.672151087380017, -0.0142560834581888, -0.999574623302731, 0.0254428090752079
-1.11964708977117, 0.999491833570218, 0.621344126320447, 0.0142560834581888, 0.999574623302731, -0.0254428090752079
-0.733204984300603, -1.09362564870643, -0.996382276520848, 0.0141997843925378, -0.0181932425485149, -0.999733650553374
-0.761612119310369, -1.05722946950721, 1.00361772347915, -0.0141997843925378, 0.0181932425485149, 0.999733650553374
-0.241439584778931, -1.00338536165183, -0.968197210607841, -0.0149904171569178, -0.999853167486101, 0.0083024611696512
-0.211454347657349, 0.996614638348175, -0.984804571447685, 0.0149904171569178, 0.999853167486101, -0.0083024611696512
0.748868575395371, -0.965286094579361, -0.383692771976737, -0.0120739834830797, -0.980598192730056, 0.195656339885519
0.773462920488144, 1.03216324624095, -0.782238914554862, 0.0120739834830797, 0.980598192730056, -0.195656339885519
-0.995645846314774, 0.798169433726964, 0.840313500474521, -0.999717210500856, 0.0206686682348308, -0.0117603223504113
1.00435415368523, 0.756820404185949, 0.863840798448154, 0.999717210500856, -0.0206686682348308, 0.0117603223504113
-0.552982237529233, -1.00037344025467, -0.682924567944517, -0.00397955392993772, -0.999977172471909, 0.00546055726141338
-0.545022947978452, 0.99962655974533, -0.693845931775084, 0.00397955392993772, 0.999977172471909, -0.00546055726141338
0.284601554870605, 0.926721267700195, -1, 0.00907332541374974, 0.0138069378974155, -0.999863512301471
0.2664524269104, 0.899103622436523, 1, -0.00907332541374974, -0.0138069378974155, 0.999863512301471
-0.433125228881836, -0.15112268447876, -1, 0.0130790171784441, 0.0133541518246385, -0.999825287707153
-0.45928783416748, -0.177835655212402, 1, -0.0130790171784441, -0.0133541518246385, 0.999825287707153
0.26866283416748, -1, -0.758568649291992, 0.00371807233559041, -0.999984973956726, -0.00402837422198304
0.261226577758789, 1, -0.750511779785156, -0.00371807233559041, 0.999984973956726, 0.00402837422198304
-1.04786904402713, 0.955189866865548, -1.00365196248841, 0.0243126163905319, 0.0164091047693381, -0.999569726414779
-1.09651520796756, 0.922357530439767, 0.996348037511588, -0.0243126163905319, -0.0164091047693381, 0.999569726414779
0.379358329772949, 0.91333381652832, -1, -0.00510569125982961, -0.025524566626373, -0.999661156800291
0.389573173522949, 0.964400253295899, 1, 0.00510569125982961, 0.025524566626373, 0.999661156800291
-0.129887466430664, -0.878300247192383, -1, 0.00761931228005289, -0.0265616230242953, -0.999618140222903
-0.145131912231445, -0.825156707763672, 1, -0.00761931228005289, 0.0265616230242953, 0.999618140222903
-1, -0.494522171020508, 0.488488159179688, -0.999923724732823, 0.00427911541792687, 0.0115859349073767
1, -0.5030810546875, 0.465314521789551, 0.999923724732823, -0.00427911541792687, -0.0115859349073767
-0.513165000208129, -1.00201412031079, -1.12768023050315, 0.0284229532363684, -0.999554620728672, 0.00909372911867388
-0.570010512598266, 0.99708126237964, -1.14586756265647, -0.0284229532363684, 0.999554620728672, -0.00909372911867388
1.14684709873738, -0.996211439479806, -0.834488286078071, 0.0186498203084824, -0.999805413812338, 0.00642796344120421
1.10954019871296, 1.00378856052019, -0.847346715033149, -0.0186498203084824, 0.999805413812338, -0.00642796344120421
0.152130756378174, -1, 0.908626556396484, -0.00852790771469212, -0.999955198493608, 0.00410801601969035
0.169187335968018, 1, 0.90041015625, 0.00852790771469212, 0.999955198493608, -0.00410801601969035
-1, -0.549714050292969, -0.866034393310547, -0.999945464521947, -0.00208366474149747, -0.010233587994113
1, -0.545546493530273, -0.845566101074219, 0.999945464521947, 0.00208366474149747, 0.010233587994113
0.555192680358887, 0.921747436523437, -1, -0.00231010043522431, -0.0222098462971709, -0.999750661996998
0.559814033508301, 0.966178207397461, 1, 0.00231010043522431, 0.0222098462971709, 0.999750661996998
-0.829681854248047, -1, 0.944837112426758, -0.00709912906618919, -0.999781932914526, 0.0196389659655485
-0.815480499267578, 1, 0.90555061340332, 0.00709912906618919, 0.999781932914526, -0.0196389659655485
-0.34447078704834, 0.862284164428711, -1, -0.00123897456806751, 9.74654398661439e-05, -0.999999227720956
-0.341992835998535, 0.862089233398438, 1, 0.00123897456806751, -9.74654398661439e-05, 0.999999227720956
0.783506143810581, 0.613492331785604, -1.01742552627667, -0.147516346762176, 0.00401635287844524, -0.989051462941892
1.08157422852738, 0.605376982969686, 0.981028758391297, 0.147516346762176, -0.00401635287844524, 0.989051462941892
0.274145469665527, 0.427052383422852, -1, 0.0175284331584869, -0.0123454511800439, -0.999770145516543
0.239080543518066, 0.451748962402344, 1, -0.0175284331584869, 0.0123454511800439, 0.999770145516543
-0.997882661467877, 0.861840644331519, 1.01678860627484, -0.999919672608536, 0.00711063483005496, 0.0104922448861858
1.00211733853212, 0.847618232222144, 0.995802430737731, 0.999919672608536, -0.00711063483005496, -0.0104922448861858
0.583311386108398, -0.526693840026855, -1, -0.00359101997764311, 0.0205888209188996, -0.999781578660404
0.590494995117188, -0.567880477905273, 1, 0.00359101997764311, -0.0205888209188996, 0.999781578660404
-0.336708183288574, 0.557708206176758, -1, 0.00536825963034793, -0.0210760606052919, -0.999763462754017
-0.347447242736816, 0.599870300292969, 1, -0.00536825963034793, 0.0210760606052919, 0.999763462754017
-0.809105175603314, 0.190004764886508, -1.03731009373251, -0.243464626788466, 0.0130013763619693, -0.969822633121875
-0.308354862798138, 0.163263946862826, 0.957390299944246, 0.243464626788466, -0.0130013763619693, 0.969822633121875
0.58424711525972, -0.994825630177665, -0.199641157522318, 0.00358849996481661, -0.999663912325865, 0.0256745995362698
0.577067702417923, 1.00517436982234, -0.251007620229837, -0.00358849996481661, 0.999663912325865, -0.0256745995362698
-0.999191458768893, -0.844791859910597, 0.499862355578154, -0.97019759293464, -0.0134399119863093, -0.24194214066514
0.996007515840482, -0.817152852342237, 0.99741328178665, 0.97019759293464, 0.0134399119863093, 0.24194214066514
-1.00289714518023, -0.0148630217878612, -0.145747531008329, -0.999836005941415, 0.0145393127501441, -0.0107967406133985
0.997102854819768, -0.0439464167921336, -0.124150507998075, 0.999836005941415, -0.0145393127501441, 0.0107967406133985
-0.997798340631936, -0.367267692523454, 1.02427660564374, -0.999939265728085, 0.00899908720285682, 0.00636249044739452
1.00220165936806, -0.385266960101579, 1.01155085185956, 0.999939265728085, -0.00899908720285682, -0.00636249044739452
0.455051879882812, -0.998536376953125, -0.927085189819336, -0.00105200198101466, -0.99059704249279, -0.136807867816032
0.457174301147461, 1, -0.651074371337891, 0.00105200198101466, 0.99059704249279, 0.136807867816032
-1, 0.547253341674805, -0.582441787719727, -0.99968679931489, 0.000163313244555131, -0.0250255190622333
1, 0.546926612854004, -0.532375068664551, 0.99968679931489, -0.000163313244555131, 0.0250255190622333
-0.00672693627055249, -0.985271625618085, -0.989951380214673, 0.0123711310503859, -0.00847431640893997, -0.999887564218065
-0.0313814200657185, -0.968383121589764, 1.00272913125994, -0.0123711310503859, 0.00847431640893997, 0.999887564218065
-0.132067089080811, -1, -0.400586853027344, 0.00381236249647606, -0.999857887483337, 0.0164216542879682
-0.139692897796631, 1, -0.433434829711914, -0.00381236249647606, 0.999857887483337, -0.0164216542879682
-0.967555743017582, -0.309956692713146, -1.00144775359834, -0.0107478259741331, 0.0127524042029896, -0.999860920540389
-0.946057101049808, -0.335465048807507, 0.998552246401657, 0.0107478259741331, -0.0127524042029896, 0.999860920540389
-0.976161169838885, 1.05581338741228, -1.00025595334715, 0.0243126163905319, 0.0164091047693381, -0.999569726414779
-1.02480733377932, 1.02298105098649, 0.999744046652847, -0.0243126163905319, -0.0164091047693381, 0.999569726414779
-1, -0.062004656791687, -0.506325759887695, -0.999929719313483, 0.00441054577213943, -0.0110047044327308
1, -0.0708263683319092, -0.484314804077148, 0.999929719313483, -0.00441054577213943, 0.0110047044327308
-0.896891712238192, -0.736266929209683, -1.00734935742993, -0.210766295828133, -0.0137416129581968, -0.977439889004022
-0.466963810016513, -0.708236342967008, 0.986464119132572, 0.210766295828133, 0.0137416129581968, 0.977439889004022
-0.328830709185188, -1.1015621087104, -0.952292277482737, 0.0206125965893325, -0.274709132400677, -0.961306409755762
-0.371558313097542, -0.532120847418897, 1.04038823399187, -0.0206125965893325, 0.274709132400677, 0.961306409755762
0.763524737287918, -0.998087915457886, -0.351718567772609, 0.00358849996481661, -0.999663912325865, 0.0256745995362698
0.756345324446121, 1.00191208454211, -0.403085030480128, -0.00358849996481661, 0.999663912325865, -0.0256745995362698
-0.99817809849389, -1.12373768389864, -0.619621488712445, -0.999620308252742, -0.00222312491171433, 0.0274644687609363
1.00164962977759, -1.11929012835665, -0.67456655707182, 0.999620308252742, 0.00222312491171433, -0.0274644687609363
-0.756957550048828, -0.0349405026435852, -1, -0.0169091925860364, 0.0093243579260969, -0.99981355039595
-0.723132858276367, -0.0535926961898804, 1, 0.0169091925860364, -0.0093243579260969, 0.99981355039595
-0.0487714365582919, -0.996696534954698, -0.218787729295841, 0.00381236249647606, -0.999857887483337, 0.0164216542879682
-0.0563972452741122, 1.0033034650453, -0.251635705980411, -0.00381236249647606, 0.999857887483337, -0.0164216542879682
-1, -0.335440444946289, 0.537971839904785, -0.999770326496022, 0.0145240605975533, -0.0157589949487917
1, -0.364495239257813, 0.5694970703125, 0.999770326496022, -0.0145240605975533, 0.0157589949487917
-1.00326575538677, -0.783498307580251, -1.09122913402687, -0.999823726369642, 0.00577674590542054, 0.0178646409162661
0.995088584212844, -0.795044328088063, -1.12693531078469, 0.999823726369642, -0.00577674590542054, -0.0178646409162661
-1.02942062103343, -0.895045366740138, 0.150919657886189, -0.941589098208968, -0.336119463074192, 0.0208249052036242
0.968149187926526, -0.181972017741115, 0.106739875018757, 0.941589098208968, 0.336119463074192, -0.0208249052036242
-1, 0.140574588775635, 0.0701993322372437, -0.999878139080932, -0.015370984696875, 0.00272760288547392
1, 0.171320304870605, 0.0647434616088867, 0.999878139080932, 0.015370984696875, -0.00272760288547392
-1.06897351608695, -0.99750260578251, -0.0122498608358029, -0.0130941456501477, -0.999913109315094, -0.00152222518515396
-1.04278294907035, 1.00249739421749, -0.00920514590812958, 0.0130941456501477, 0.999913109315094, 0.00152222518515396
-0.998636977432702, -0.922370576034186, 0.525787317934197, -0.999975950360458, -0.00563747484554715, -0.00403950220510535
0.998932831527259, -0.911109055648444, 0.533856699648064, 0.999975950360458, 0.00563747484554715, 0.00403950220510535
-0.364288711547852, -1, 0.0676083612442017, 0.00868814834852137, -0.999910420667232, 0.0101816854868743
-0.381666564941406, 1, 0.0472431659698486, -0.00868814834852137, 0.999910420667232, -0.0101816854868743
-0.958676376342773, -0.411238594055176, -0.994974899291992, -0.301098222421503, -0.00285140869386302, -0.953588868393016
-0.328757743835449, -0.405273246765137, 1, 0.301098222421503, 0.00285140869386302, 0.953588868393016
-0.344893194650921, -1.00165060043809, -0.840006663252681, 0.30328887964163, -0.952877299172407, 0.00638029839619371
-0.980507017587933, 0.995329914088278, -0.853378092696041, -0.30328887964163, 0.952877299172407, -0.00638029839619371
-1, 0.586924095153809, -0.423958702087402, -0.999926736005932, 0.0119236792771063, -0.00208530405924638
1, 0.563074989318848, -0.419787788391113, 0.999926736005932, -0.0119236792771063, 0.00208530405924638
-0.162684547910985, -0.988156923175622, -0.556257670216424, -0.00659224965446777, -0.988053427372315, 0.153970668967547
-0.149370872984227, 1.00731091129703, -0.867216074757439, 0.00659224965446777, 0.988053427372315, -0.153970668967547
-0.995371723213689, 0.628453072488416, 0.286909494220035, -0.999655514208431, 0.0234248691213879, 0.0118375850291652
1.00462827678631, 0.581587189614881, 0.263226165591495, 0.999655514208431, -0.0234248691213879, -0.0118375850291652
-0.99942070479227, -0.59329361139709, 1.08899361075772, -0.999939265728085, 0.00899908720285682, 0.00636249044739452
1.00057929520773, -0.611292878975215, 1.07626785697354, 0.999939265728085, -0.00899908720285682, -0.00636249044739452
1.07207037389456, -0.655760643548072, -1.00061021781802, -0.00342629641455924, -0.00694793832614247, -0.999969992872734
1.07892317235648, -0.641864349907935, 0.999389782181985, 0.00342629641455924, 0.00694793832614247, 0.999969992872734
0.914085438809239, -0.999059157092765, -0.23092952774668, -0.00110617285247344, -0.999988193112616, 0.00473180906060288
0.916297810635411, 1.00094084290723, -0.240393257605078, 0.00110617285247344, 0.999988193112616, -0.00473180906060288
-0.998608234163302, -1.04148594465361, 0.808628420143649, -0.999967447384242, -0.00380656248376745, 0.00711436953637688
1.0013917658367, -1.03387257185088, 0.794399217873141, 0.999967447384242, 0.00380656248376745, -0.00711436953637688
-1.16394776355969, 0.547384498792526, -0.982366199512063, -0.0926686843996955, -0.0139007737412668, -0.995599961541293
-0.977846689340935, 0.575300605970261, 1.0170387077145, 0.0926686843996955, 0.0139007737412668, 0.995599961541293
0.263184471130371, -0.548605346679688, -1, 0.0018309246223001, 0.0018158661549111, -0.99999667516704
0.259522609710693, -0.552237091064453, 1, -0.0018309246223001, -0.0018158661549111, 0.99999667516704
0.941669464111328, -1, 0.535273132324219, -0.00844699198362662, -0.999638064834036, -0.0255418805355577
0.958569564819336, 1, 0.586375389099121, 0.00844699198362662, 0.999638064834036, 0.0255418805355577
-1, -0.23480936050415, 0.220272521972656, -0.999722952874379, -0.0040647781701223, 0.0231839400137261
1, -0.226677551269531, 0.173891792297363, 0.999722952874379, 0.0040647781701223, -0.0231839400137261
0.463231855895438, -0.996286507387809, 0.298431277805578, 0.0194097599965478, -0.999767086489161, -0.00943578241864661
0.424403292205253, 1.00371349261219, 0.317307239109289, -0.0194097599965478, 0.999767086489161, 0.00943578241864661
-1.08257206496546, -0.992390354757969, -0.785819490715407, -0.0134066073363539, -0.999869382090036, -0.00902671804250677
-1.05584950026819, 1.00058770310336, -0.76782708959236, 0.0134066073363539, 0.999869382090036, 0.00902671804250677
-0.916822980074755, -0.743593533406754, -0.996010565358241, -0.00185793652110183, 0.0108939354325009, -0.999938933256764
-0.913118374972216, -0.765315335164567, 0.997802911204259, 0.00185793652110183, -0.0108939354325009, 0.999938933256764
-1.00158382128493, -1.11251787082119, -0.742670896645978, -0.999620308252742, -0.00222312491171433, 0.0274644687609363
0.998243906986558, -1.10807031527919, -0.797615965005353, 0.999620308252742, 0.00222312491171433, -0.0274644687609363
0.672582168579102, -1, -0.447087860107422, 0.00105620495935012, -0.999992028546223, 0.00385062009206875
0.670469741821289, 1, -0.454789161682129, -0.00105620495935012, 0.999992028546223, -0.00385062009206875
-1, 0.649967422485352, 0.169341907501221, -0.999983126759715, 0.000532599045403257, -0.00578468098701147
1, 0.648902206420898, 0.180911464691162, 0.999983126759715, -0.000532599045403257, 0.00578468098701147
-0.418018971552601, -1.00366809992972, 0.317565920394277, 0.00611079577575264, -0.999584074279769, 0.0281839780947367
-0.430245648493518, 0.996331900070276, 0.26117450956664, -0.00611079577575264, 0.999584074279769, -0.0281839780947367
-0.999449134619924, 0.453067906002932, 0.855278030508912, -0.999643497841958, -0.00894407781216477, 0.0251571201528667
1.00055086538008, 0.470962441067629, 0.804945846671022, 0.999643497841958, 0.00894407781216477, -0.0251571201528667
-0.916567230224609, 0.652889556884766, -1, 0.0207402784919112, -0.000501067059744525, -0.999784771728335
-0.958056716918945, 0.653891906738281, 1, -0.0207402784919112, 0.000501067059744525, 0.999784771728335
0.393900315910316, -1.00016252266775, -0.602634218350345, 0.00371807233559041, -0.999984973956726, -0.00402837422198304
0.386464059501624, 0.999837477332249, -0.594577348843509, -0.00371807233559041, 0.999984973956726, 0.00402837422198304
-1, 0.29350549697876, -0.929787826538086, -0.999864365788981, -0.0130878432827587, 0.009997918963716
1, 0.319684734344482, -0.949786376953125, 0.999864365788981, 0.0130878432827587, -0.009997918963716
-0.63444393157959, -0.997422714233398, -0.932062149047852, 0.00571989626825036, -0.995982327888985, -0.0893671378053441
-0.645915069580078, 1, -0.752838134765625, -0.00571989626825036, 0.995982327888985, 0.0893671378053441
0.654567184448242, 0.161712779998779, -1, 0.0144022622740001, -0.00696978982883288, -0.999871990242317
0.625758972167969, 0.175654144287109, 1, -0.0144022622740001, 0.00696978982883288, 0.999871990242317
-1, -0.22669095993042, -0.0404733562469482, -0.99990638911474, 0.00520980698320921, -0.0126519136386693
1, -0.237111549377441, -0.0151671600341797, 0.99990638911474, -0.00520980698320921, 0.0126519136386693
-1, -0.73449577331543, 0.574955558776855, -0.999757496461782, 0.0198911483616678, 0.00944936428144789
1, -0.774287719726563, 0.55605224609375, 0.999757496461782, -0.0198911483616678, -0.00944936428144789
-1.00498399647739, 0.68577141131649, 0.340887488243667, -0.999658185404831, -0.0259135140793192, -0.00346441065432552
0.995016003522606, 0.737616160767174, 0.347818678734389, 0.999658185404831, 0.0259135140793192, 0.00346441065432552
-1.00575822426649, -0.714082456681906, -0.113491786136919, -0.999554374750662, -0.0212660012856841, 0.020947770910794
0.994241775733515, -0.671531492326437, -0.155406005993182, 0.999554374750662, 0.0212660012856841, -0.020947770910794
-0.992535648929177, -0.688606147241426, 0.718924783699651, -0.994672114566208, 0.103081538097388, 0.00125738135242674
0.999554805172385, -0.895053824853731, 0.716406549446721, 0.994672114566208, -0.103081538097388, -0.00125738135242674
1.13633163139636, -0.989335530274993, -1.05746094096901, -0.00440987838725559, -0.992223432196349, -0.124391372583098
1.14521819755847, 1.01014345837247, -0.806793674123308, 0.00440987838725559, 0.992223432196349, 0.124391372583098
0.860622482299805, 0.286449546813965, -1, 0.0021813531403965, 8.13577621002858e-05, -0.999997617536858
0.856259765625, 0.2862868309021, 1, -0.0021813531403965, -8.13577621002858e-05, 0.999997617536858
-1, -0.494522171020508, 0.488488159179688, -0.974882723499827, 0.222647364537497, 0.00564149679316985
0.998698577880859, -0.950992431640625, 0.476921997070313, 0.974882723499827, -0.222647364537497, -0.00564149679316985
-0.858995971150944, 1.09504028768229, -0.996762179222107, 0.0243126163905319, 0.0164091047693381, -0.999569726414779
-0.907642135091373, 1.06220795125651, 1.00323782077789, -0.0243126163905319, -0.0164091047693381, 0.999569726414779
-0.548217818423472, -0.998983542941516, 1.05242538574926, 0.0142158725349521, -0.99976812417068, 0.0161742653715673
-0.57665615765687, 1.00101645705848, 1.02006935242407, -0.0142158725349521, 0.99976812417068, -0.0161742653715673
-0.610401000976562, -0.145796489715576, -1, -0.0225223367620635, 0.00628061681117838, -0.99972661172905
-0.565344009399414, -0.158361158370972, 1, 0.0225223367620635, -0.00628061681117838, 0.99972661172905
1.06888238449748, 0.935867894949185, -0.998846088358925, 0.00936919871633719, -0.00770748630446503, -0.999926403676931
1.05014260788615, 0.951284002126919, 1.00115391164108, -0.00936919871633719, 0.00770748630446503, 0.999926403676931
-1, -0.0145880806446075, -0.75268798828125, -0.999657410546374, 0.0260988551540845, -0.00197770052435898
1, -0.0668036794662476, -0.748731231689453, 0.999657410546374, -0.0260988551540845, 0.00197770052435898
-1, 0.758281631469727, -0.284640197753906, -0.999831455074243, -0.0116860335863502, 0.0141597338654898
1, 0.781657638549805, -0.31296443939209, 0.999831455074243, 0.0116860335863502, -0.0141597338654898
0.435095329284668, -1, 0.194276256561279, -0.0117341608595791, -0.999876435718625, 0.0104605336164112
0.458566551208496, 1, 0.173352603912354, 0.0117341608595791, 0.999876435718625, -0.0104605336164112
0.70029296875, 0.666844177246094, -1, -0.0037790618690591, -0.00834918243439909, -0.999958004040203
0.707851409912109, 0.683543243408203, 1, 0.0037790618690591, 0.00834918243439909, 0.999958004040203
-0.262647957607903, -0.667001560656022, -0.994864492646004, 0.0186116719460512, -0.0180072833470173, -0.999664615465523
-0.299883789822259, -0.630974911180925, 1.005135507354, -0.0186116719460512, 0.0180072833470173, 0.999664615465523
-0.922360579662057, -0.95408537510444, -1.00160832719025, 0.0141997843925378, -0.0181932425485149, -0.999733650553374
-0.950767714671823, -0.917689195905222, 0.998391672809746, -0.0141997843925378, 0.0181932425485149, 0.999733650553374
0.277954069021568, -0.98563800463117, -1.01911777850182, -0.00105200198101466, -0.99059704249279, -0.136807867816032
0.280076490286217, 1.01289837232196, -0.743106960020374, 0.00105200198101466, 0.99059704249279, 0.136807867816032
0.43260366383854, -0.102507450400476, -1.00351879029867, -0.0159293008703506, -0.0151891952894337, -0.999757743516019
0.464469985402261, -0.0721216986762327, 0.996481209701327, 0.0159293008703506, 0.0151891952894337, 0.999757743516019
-1.03587753289636, -0.226748607332645, -0.9931238925633, 0.00280528545515641, 0.0112063236236236, -0.999933272115874
-1.04147438043054, -0.249106433565556, 1.00185100672869, -0.00280528545515641, -0.0112063236236236, 0.999933272115874
-0.137157363891602, -0.509718780517578, -1, 0.00196207179584418, 0.0200737545961507, -0.999796576634808
-0.141082305908203, -0.549874458312988, 1, -0.00196207179584418, -0.0200737545961507, 0.999796576634808
0.0526984676822955, -0.756103800038244, -1.00197828707072, -0.0105454087958845, -0.0122694358249173, -0.999869119084026
0.0737920460209185, -0.73156171629801, 0.998021712929275, 0.0105454087958845, 0.0122694358249173, 0.999869119084026
-0.432125854492187, -0.879232177734375, -1, 0.00807184917225921, -0.0158012305999537, -0.999842570789256
-0.448272094726562, -0.847624740600586, 1, -0.00807184917225921, 0.0158012305999537, 0.999842570789256
0.431593055725098, 0.149804162979126, -1, 0.0206333674852698, 0.00428812139832527, -0.999777913419321
0.390317153930664, 0.141226015090942, 1, -0.0206333674852698, -0.00428812139832527, 0.999777913419321
-0.053649377822876, -1, -0.102851705551147, -3.61718774300034e-05, -0.99997264824791, 0.00739604270248687
-0.0535770320892334, 1, -0.117644195556641, 3.61718774300034e-05, 0.99997264824791, -0.00739604270248687
-0.55359619140625, 0.668628692626953, -1, -0.0168558210258334, -0.0156985391946762, -0.999734683385896
-0.519875602722168, 0.700034103393555, 1, 0.0168558210258334, 0.0156985391946762, 0.999734683385896
-0.747280578613281, -1, 0.645979690551758, 0.000255652096723818, -0.999965133446263, -0.00834664805791385
-0.747791900634766, 1, 0.662673568725586, -0.000255652096723818, 0.999965133446263, 0.00834664805791385
0.142586867624429, -0.997167316760445, -1.08055995497767, -0.011124419030164, -0.999836184234733, -0.0142776747466583
0.164839350992349, 1.00283268323956, -1.0519999269015, 0.011124419030164, 0.999836184234733, 0.0142776747466583
-1.05458579289732, 0.476689989511175, -0.99946357637031, -0.00238569992022691, 0.00203923174745011, -0.999995074972758
-1.04981436955748, 0.472611505929632, 1.00053642362969, 0.00238569992022691, -0.00203923174745011, 0.999995074972758
-0.857180252075195, 0.444584465026856, -1, -0.00238569992022691, 0.00203923174745011, -0.999995074972758
-0.852408828735352, 0.440505981445312, 1, 0.00238569992022691, -0.00203923174745011, 0.999995074972758
0.656280722626752, 0.255402889708043, -0.999904076244798, -0.147516346762176, 0.00401635287844524, -0.989051462941892
0.954348807343549, 0.247287540892125, 0.998550208423171, 0.147516346762176, -0.00401635287844524, 0.989051462941892
-1, 0.757864532470703, 0.265572471618652, -0.999899967279463, 0.00509317942927903, 0.0131952627041108
1, 0.747677154541016, 0.239179306030273, 0.999899967279463, -0.00509317942927903, -0.0131952627041108
-0.662185440063477, -1, -0.409744071960449, -0.0110440436495882, -0.999930846735139, -0.00404114431995713
-0.640095825195312, 1, -0.401661224365234, 0.0110440436495882, 0.999930846735139, 0.00404114431995713
-0.0157162221901159, 0.77409447953927, -0.997575876237006, -0.0285484918498382, 0.00321898094987575, -0.999587225696059
0.0414043394096155, 0.767653859116907, 1.00242412376299, 0.0285484918498382, -0.00321898094987575, 0.999587225696059
-0.972172232606377, -0.487637658312704, 0.371674231196089, -0.97019759293464, -0.0134399119863093, -0.24194214066514
1.023026742003, -0.459998650744344, 0.869225157404585, 0.97019759293464, 0.0134399119863093, 0.24194214066514
0.852288551042218, 0.511346877851072, -1.02809916867021, -0.147516346762176, 0.00401635287844524, -0.989051462941892
1.15035663575902, 0.503231529035154, 0.970355115997757, 0.147516346762176, -0.00401635287844524, 0.989051462941892
0.460510491677661, -0.999812998051766, -0.410825468438905, -0.00339844649230588, -0.999865160063, -0.0160658723270713
0.467308301278491, 1.00018700194823, -0.378689390558045, 0.00339844649230588, 0.999865160063, 0.0160658723270713
-1.0441602734531, -0.980758187174088, 0.974479983397847, -0.205891015819706, -0.978497127624203, 0.0123394017648252
-0.624158404251439, 1.0153008490808, 0.94930855090273, 0.205891015819706, 0.978497127624203, -0.0123394017648252
-0.34387751252356, -0.940342895114174, 1.14428695800606, -0.00533312165610184, -0.941300191728849, 0.337528527482691
-0.332570940563111, 1.0552760013702, 0.428704072263872, 0.00533312165610184, 0.941300191728849, -0.337528527482691
-0.971725311279297, -0.551289329528809, -0.9938134765625, -0.210766295828133, -0.0137416129581968, -0.977439889004022
-0.541797409057617, -0.523258743286133, 1, 0.210766295828133, 0.0137416129581968, 0.977439889004022
1.00909199654946, -1.0031110181339, 0.167659274429547, -0.0155553695718659, -0.999852097305824, -0.00733580197582847
1.04020733773598, 0.996888981866098, 0.182333048671948, 0.0155553695718659, 0.999852097305824, 0.00733580197582847
-0.749172429132687, 0.792282203590651, -1.03146513239677, 0.0131733496514661, 0.20241283991824, -0.979211675326225
-0.776054524469601, 0.379229988014479, 0.96675569279854, -0.0131733496514661, -0.20241283991824, 0.979211675326225
-1.18270107134197, -0.993054685518277, 0.790768639121524, -0.0142560834581888, -0.999574623302731, 0.0254428090752079
-1.1542329774699, 1.00300435073661, 0.739961678061953, 0.0142560834581888, 0.999574623302731, -0.0254428090752079
-1, 0.77389762878418, -0.395566558837891, -0.999962258206568, -0.00534174784813747, 0.0068518532054175
1, 0.784581527709961, -0.409270782470703, 0.999962258206568, 0.00534174784813747, -0.0068518532054175
-1.12037883675144, -0.68072918766955, -0.959939408468933, -0.210766295828133, -0.0137416129581968, -0.977439889004022
-0.69045093452976, -0.652698601426874, 1.03387406809357, 0.210766295828133, 0.0137416129581968, 0.977439889004022
-0.559519958496094, 0.960848236083984, -0.997918472290039, -0.000672280841360336, 0.0972805465666736, -0.995256772545738
-0.558170394897461, 0.765563354492187, 1, 0.000672280841360336, -0.0972805465666736, 0.995256772545738
-0.262976739536853, -0.998284154970561, 0.671259655003373, -0.0115383989524942, -0.99973130537331, 0.0201042882537904
-0.239893739353748, 1.00171584502944, 0.631040271763626, 0.0115383989524942, 0.99973130537331, -0.0201042882537904
-1, 0.238238906860352, 0.373601264953613, -0.999874365842255, -0.0154050734781411, 0.00373312773446826
1, 0.269052925109863, 0.366134071350098, 0.999874365842255, 0.0154050734781411, -0.00373312773446826
0.00849090599055966, 0.409405104141529, -0.996902584727586, 0.00647298991825462, -0.0157393546035757, -0.999855176072106
-0.00445694900516788, 0.440888372879322, 1.00309741527241, -0.00647298991825462, 0.0157393546035757, 0.999855176072106
-1.01724831527145, 0.28308977488131, -0.999597003600901, 0.000169524199549912, 0.00333808941672242, -0.999994414194695
-1.01758736556442, 0.276413558755822, 1.0004029963991, -0.000169524199549912, -0.00333808941672242, 0.999994414194695
-1, 0.674666976928711, -0.823656387329102, -0.99993644489007, 0.0110680602564143, -0.00214574527108769
1, 0.652529449462891, -0.819364624023438, 0.99993644489007, -0.0110680602564143, 0.00214574527108769
-1, -0.749570693969727, -0.0274222683906555, -0.999958678097924, 0.0041248142889954, -0.00810111126536448
1, -0.757820663452148, -0.0112193763256073, 0.999958678097924, -0.0041248142889954, 0.00810111126536448
-0.996494768214482, -0.963240244015163, 1.11321060194897, -0.999798346426724, -0.0157107518250239, 0.0125075481003023
1.00350523178552, -0.931812402828639, 1.0881904603474, 0.999798346426724, 0.0157107518250239, -0.0125075481003023
-0.869442545454812, 0.764710556266826, -1.03878246317572, 0.0131733496514661, 0.20241283991824, -0.979211675326225
-0.896324640791726, 0.351658340690654, 0.959438362019589, -0.0131733496514661, -0.20241283991824, 0.979211675326225
-1, -0.240622577667236, 0.655040893554688, -0.999884247152431, 0.00415526923473013, 0.0146364624825259
1, -0.248934078216553, 0.625764579772949, 0.999884247152431, -0.00415526923473013, -0.0146364624825259
-1, -0.644947967529297, 0.492003288269043, -0.97019759293464, -0.0134399119863093, -0.24194214066514
0.995198974609375, -0.617308959960937, 0.989554214477539, 0.97019759293464, 0.0134399119863093, 0.24194214066514
-0.999354138061791, -1.07022358754913, 0.688410986074377, -0.999967447384242, -0.00380656248376745, 0.00711436953637688
1.00064586193821, -1.06261021474639, 0.674181783803869, 0.999967447384242, 0.00380656248376745, -0.00711436953637688
-1, 0.65666015625, -0.0268894338607788, -0.999909991172595, -0.0114096861308862, 0.0070589387032081
1, 0.679481582641602, -0.0410085821151733, 0.999909991172595, 0.0114096861308862, -0.0070589387032081
0.152537775039673, -1, -0.521802368164063, -0.0137579938257951, -0.999879895902453, -0.00713522080866547
0.180057067871094, 1, -0.507530212402344, 0.0137579938257951, 0.999879895902453, 0.00713522080866547
-1.04189866982969, 0.115380135888463, -0.999748213669748, -0.020240090255079, -0.0187617341952736, -0.999619095494105
-1.00140306436094, 0.152917902583485, 1.00025178633025, 0.020240090255079, 0.0187617341952736, 0.999619095494105
-1, -0.501882629394531, -0.257482395172119, -0.999827864208124, -0.00641315674038464, -0.0174101514538334
1, -0.489054107666016, -0.222656097412109, 0.999827864208124, 0.00641315674038464, 0.0174101514538334
-0.429633712768555, -1, -0.419879951477051, 0.00667165775905772, -0.999908553617972, -0.0117632216829094
-0.442978248596191, 1, -0.396351356506348, -0.00667165775905772, 0.999908553617972, 0.0117632216829094
-0.541064563954344, -0.833242495539644, -0.998391673041601, 0.0141997843925378, -0.0181932425485149, -0.999733650553374
-0.56947169896411, -0.796846316340426, 1.0016083269584, -0.0141997843925378, 0.0181932425485149, 0.999733650553374
-0.923961521264535, -0.0447570884082507, 0.127036520744982, -0.904964442849461, -0.00930147456922067, 0.425385518969561
1.07315678012707, -0.0242301547382067, -0.811724346373854, 0.904964442849461, 0.00930147456922067, -0.425385518969561
-1.00370663251169, 0.269779423517579, 1.04540951426452, -0.999828245611277, -0.00979985691718025, -0.0157302918688089
0.996293367488307, 0.289382504267091, 1.0768755024237, 0.999828245611277, 0.00979985691718025, 0.0157302918688089
-1, -0.0839394569396973, 0.356815872192383, -0.999858957070155, -0.0112052941969492, 0.0125102897065423
1, -0.0615257072448731, 0.331791763305664, 0.999858957070155, 0.0112052941969492, -0.0125102897065423
0.726198196411133, -1, 0.894817733764648, -0.00163100998950138, -0.99957797420828, -0.0290036770787016
0.72946159362793, 1, 0.952849578857422, 0.00163100998950138, 0.99957797420828, 0.0290036770787016
0.227581910560018, 0.949815944633817, -0.650966184603259, -0.278536741347461, 0.960404357110241, -0.00638393007496685
0.805986527869589, -1.0445432625195, -0.637709424959705, 0.278536741347461, -0.960404357110241, 0.00638393007496685
0.558591933076416, -0.430256113238561, -0.99894702745664, 0.0196817902779181, 0.0040414660747153, -0.999798126465249
0.519220404450928, -0.438340677447546, 1.00105297254336, -0.0196817902779181, -0.0040414660747153, 0.999798126465249
0.471822280891329, -0.996671669569424, -0.0817297139647843, -0.00851520535055581, -0.999599208911405, 0.0269983855356348
0.488859519966037, 1.00332833043058, -0.13574813513788, 0.00851520535055581, 0.999599208911405, -0.0269983855356348
-0.415005002675106, -1.07072243021796, -1.00400308466063, -0.0179755140557426, 0.00944644653067655, -0.999793801512279
-0.379046559987118, -1.08961921976875, 0.995996915339371, 0.0179755140557426, -0.00944644653067655, 0.999793801512279
-1, -0.226714210510254, 0.917350540161133, -0.999993983546652, -0.00346548856459713, -0.000152510679100781
1, -0.219783191680908, 0.917655563354492, 0.999993983546652, 0.00346548856459713, 0.000152510679100781
-0.627654886051416, -1.00166546872472, 0.645939326324644, -0.00645812522690469, -0.999963839459489, -0.00553284664445195
-0.61473816852212, 0.998334531275284, 0.657005419769469, 0.00645812522690469, 0.999963839459489, 0.00553284664445195
0.307622470044563, 0.973635087460139, -0.559835496806433, -0.278536741347462, 0.960404357110241, -0.00638393007496685
0.886027087354133, -1.02072411969318, -0.546578737162878, 0.278536741347462, -0.960404357110241, 0.00638393007496685
0.658983764648438, -0.837024002075195, -1, -0.0138920897164671, 0.0255605421403221, -0.999576744691873
0.686779708862305, -0.888166732788086, 1, 0.0138920897164671, -0.0255605421403221, 0.999576744691873
-1, -0.621856269836426, 0.0687480163574219, -0.999923118809976, 0.0115839443965852, 0.00442365251200123
1, -0.645025939941406, 0.0599000310897827, 0.999923118809976, -0.0115839443965852, -0.00442365251200123
-0.225644664764404, -1, 0.478466873168945, 0.0102096756548925, -0.999807694991309, 0.0167432242769544
-0.246067943572998, 1, 0.444973983764648, -0.0102096756548925, 0.999807694991309, -0.0167432242769544
-0.967948865483657, -0.350755171494485, 0.353196715904439, -0.974882723499827, 0.222647364537497, 0.00564149679316985
1.0307497123972, -0.807225432114602, 0.341630553795064, 0.974882723499827, -0.222647364537497, -0.00564149679316985
-0.440817153233879, -1.02630741884245, -0.812983498817123, -0.00659224965446777, -0.988053427372315, 0.153970668967547
-0.427503478307121, 0.969160415630207, -1.12394190335814, 0.00659224965446777, 0.988053427372315, -0.153970668967547
-0.853793553895294, -1.00144013187508, 0.81525140146872, 0.000255652096723818, -0.999965133446263, -0.00834664805791385
-0.854304875916779, 0.998559868124921, 0.831945279642548, -0.000255652096723818, 0.999965133446263, 0.00834664805791385
1.05350848558061, 0.233583524590424, -0.999583547580082, 0.0021813531403965, 8.13577621002858e-05, -0.999997617536858
1.0491457689058, 0.233420808678559, 1.00041645241992, -0.0021813531403965, -8.13577621002858e-05, 0.999997617536858
-1.05039010662009, -0.999885617017357, 0.596537349255572, -0.0142560834581888, -0.999574623302731, 0.0254428090752079
-1.02192201274802, 0.996173419237526, 0.545730388196001, 0.0142560834581888, 0.999574623302731, -0.0254428090752079
-0.31341069619375, -0.790676959106936, -1.04080218686558, 0.0206125965893324, -0.274709132400678, -0.961306409755762
-0.356138300106103, -0.221235697815433, 0.951878324609031, -0.0206125965893324, 0.274709132400678, 0.961306409755762
0.306811637542613, 1.05888802636147, -1.00285115007081, -0.0048640297104243, -0.0150123592098413, -0.999875477390025
0.316540908477671, 1.08891648400307, 0.997148849929185, 0.0048640297104243, 0.0150123592098413, 0.999875477390025
0.185149726867676, 0.362171974182129, -1, -0.0240182679174438, 0.00135779175268075, -0.999710597727063
0.233200168609619, 0.359455604553223, 1, 0.0240182679174438, -0.00135779175268075, 0.999710597727063
-1.00373151586395, -0.906347365347046, -1.07757146149442, -0.999823726369642, 0.00577674590542054, 0.0178646409162661
0.994622823735659, -0.917893385854859, -1.11327763825223, 0.999823726369642, -0.00577674590542054, -0.0178646409162661
0.795643661372007, -1.00002419847487, 0.808026243198571, 0.0130734076128415, -0.999861525229305, -0.0102964255698662
0.76949322497064, 0.999975801525129, 0.828621946323571, -0.0130734076128415, 0.999861525229305, 0.0102964255698662
-1.09350694364, -0.269661353015948, -0.952825131297049, -0.301098222421503, -0.00285140869386302, -0.953588868393016
-0.46358831113268, -0.263696005725909, 1.04214976799494, 0.301098222421503, 0.00285140869386302, 0.953588868393016
-1.04633451837155, -0.576127198908191, 0.673983546027066, -0.97019759293464, -0.0134399119863093, -0.24194214066514
0.948864456237821, -0.548488191339832, 1.17153447223556, 0.97019759293464, 0.0134399119863093, 0.24194214066514
-0.123980121612549, 0.443631057739258, -1, -0.00193653551733358, 0.00599784381803635, -0.999980137652606
-0.120106973648071, 0.431635131835937, 1, 0.00193653551733358, -0.00599784381803635, 0.999980137652606
-1.00259348154661, 0.493474237431616, -0.927384350895248, -0.999864365788981, -0.0130878432827587, 0.009997918963716
0.997406518453387, 0.519653474797338, -0.947382901310287, 0.999864365788981, 0.0130878432827587, -0.009997918963716
-0.415611576871511, -0.913685956167433, -1.1384983903427, 0.00665358008752425, -0.911423444259619, -0.411415890706658
-0.430123257474538, 1.07415904505327, -0.241186578895553, -0.00665358008752425, 0.911423444259619, 0.411415890706658
-1.00169819675538, 0.356837099870418, -0.585835428589944, -0.999700002895008, -0.00701615073090064, -0.0234665259602139
0.998301803244623, 0.370873612245296, -0.538888292664651, 0.999700002895008, 0.00701615073090064, 0.0234665259602139
-0.0432952928543091, -1, 0.379184226989746, -0.00739685806227612, -0.999966845487354, 0.00340505754390739
-0.0285010862350464, 1, 0.372373886108398, 0.00739685806227612, 0.999966845487354, -0.00340505754390739
0.649075927734375, -1, 0.930347442626953, 0.0139264473611177, -0.999695939184946, 0.0203490353831897
0.621214561462402, 1, 0.889636993408203, -0.0139264473611177, 0.999695939184946, -0.0203490353831897
-1.05163113409753, -1.03097113618427, 0.402254093893256, -0.0169439085798212, -0.947641282805136, -0.318886975408959
-1.01591252142663, 0.966704416183898, 1.07448389888593, 0.0169439085798212, 0.947641282805136, 0.318886975408959
0.0477786350250244, 0.584456596374512, -1, -0.0285484918498382, 0.00321898094987575, -0.999587225696059
0.104899196624756, 0.578015975952148, 1, 0.0285484918498382, -0.00321898094987575, 0.999587225696059
-1.13843184767081, -0.446309966955598, -0.959342268894854, -0.210766295828133, -0.0137416129581968, -0.977439889004022
-0.708503945449135, -0.418279380712922, 1.03447120766765, 0.210766295828133, 0.0137416129581968, 0.977439889004022
0.577456384749113, 1.05018405406836, -0.816839916458065, -0.278536741347462, 0.960404357110241, -0.00638393007496685
1.15586100205868, -0.944175153084961, -0.803583156814511, 0.278536741347462, -0.960404357110241, 0.00638393007496685
-1, -0.870857009887695, 0.704302825927734, -0.999967447384242, -0.00380656248376745, 0.00711436953637688
1, -0.863243637084961, 0.690073623657227, 0.999967447384242, 0.00380656248376745, -0.00711436953637688
0.455804557800293, -1, 0.455207328796387, -0.00839215177971012, -0.99996465327306, -0.000513802486315212
0.472589454650879, 1, 0.456234970092773, 0.00839215177971012, 0.99996465327306, 0.000513802486315212
-0.462580782637781, -0.928114203898036, 1.1765147832716, -0.00533312165610184, -0.941300191728849, 0.337528527482691
-0.451274210677331, 1.06750469258634, 0.460931897529412, 0.00533312165610184, 0.941300191728849, -0.337528527482691
-0.99601178759154, -1.05756851743966, 1.03333204720186, -0.999798346426724, -0.0157107518250239, 0.0125075481003023
1.00398821240846, -1.02614067625314, 1.0083119056003, 0.999798346426724, 0.0157107518250239, -0.0125075481003023
0.263265743255615, 0.792872161865234, -1, 0.00841916733889097, -0.000257254057205877, -0.9999645250916
0.246426811218262, 0.793386688232422, 1, -0.00841916733889097, 0.000257254057205877, 0.9999645250916
-1.02623179426575, -0.879967843888469, -0.152472522743917, -0.99083020515258, 0.134832235816646, -0.00870475398738496
0.971737413497919, -1.15185161769218, -0.134919736870504, 0.99083020515258, -0.134832235816646, 0.00870475398738496
0.273010827080959, 0.961459824123333, -0.881355577660383, -0.278536741347462, 0.960404357110241, -0.00638393007496685
0.851415444390529, -1.03289938302999, -0.868098818016828, 0.278536741347462, -0.960404357110241, 0.00638393007496685
-0.553870149413116, -1.00322610740286, -0.469478888732814, -0.0159664080131528, -0.99986814830208, -0.00295970034423052
-0.521933122435577, 0.996773892597135, -0.4635587074584, 0.0159664080131528, 0.99986814830208, 0.00295970034423052
-0.999062550600028, -0.483226483665909, -0.138540278098724, -0.999971185490947, 0.00681651500558816, -0.00334115414312624
1.00093744939997, -0.496859906517471, -0.13185777725949, 0.999971185490947, -0.00681651500558816, 0.00334115414312624
-1.00324474587614, -0.670564246830221, 1.15018503972383, -0.999799505692874, -0.00862080689521789, -0.0180729107993302
0.991954228733237, -0.653360572513815, 1.18625132390352, 0.999799505692874, 0.00862080689521789, 0.0180729107993302
-0.21260082244873, -1, 0.346766090393066, 0.0161229616120051, -0.999869921977594, 0.000435009630590609
-0.244850940704346, 1, 0.345895957946777, -0.0161229616120051, 0.999869921977594, -0.000435009630590609
-0.759077377319336, 0.649272537231445, -1, -0.00212546482490658, -0.0105295590746193, -0.999942303728056
-0.754826202392578, 0.670332870483398, 1, 0.00212546482490658, 0.0105295590746193, 0.999942303728056
0.0266199493408203, -1, -0.18050235748291, -0.00791994349492783, -0.999626273862074, -0.0261646154120884
0.0424657583236694, 1, -0.128153562545776, 0.00791994349492783, 0.999626273862074, 0.0261646154120884
-0.540248164893138, -0.992855084607434, -0.602571868735257, -0.00659224965446777, -0.988053427372315, 0.153970668967547
-0.52693448996638, 1.00261274986522, -0.913530273276272, 0.00659224965446777, 0.988053427372315, -0.153970668967547
-0.177875003814697, -0.0169962120056152, -1, -0.0141961745829678, 0.00581593844215946, -0.999882314818723
-0.149479312896729, -0.028629457950592, 1, 0.0141961745829678, -0.00581593844215946, 0.999882314818723
-1, -0.317271919250488, 0.35432991027832, -0.999743167652419, 0.0167947348381527, -0.0152162943590884
1, -0.350870018005371, 0.384770317077637, 0.999743167652419, -0.0167947348381527, 0.0152162943590884
-0.644424579027661, -1.01755265699548, 0.924215433133033, -0.00533312165610181, -0.941300191728849, 0.337528527482691
-0.633118007067212, 0.978066239488895, 0.208632547390845, 0.00533312165610181, 0.941300191728849, -0.337528527482691
-0.998065778321027, -0.657899278620391, 0.0812229735095669, -0.99083020515258, 0.134832235816646, -0.00870475398738496
0.999903429442645, -0.929783052424101, 0.09877575938298, 0.99083020515258, -0.134832235816646, 0.00870475398738496